# .PCD v.7 - Point Cloud Data file format
VERSION .7
FIELDS x y z
SIZE 4 4 4
TYPE F F F
COUNT 1 1 1
WIDTH 2489
HEIGHT 1
VIEWPOINT 0 0 0 1 0 0 0
POINTS 2489
DATA ascii
-47.38 1907.0 -47.38
-46.67 1908.0 -46.67
-47.38 1909.0 -47.38
-47.38 1910.0 -47.38
-47.38 1911.0 -47.38
-48.08 1912.0 -48.08
-47.38 1913.0 -47.38
-50.2 1914.0 -50.2
-50.2 1915.0 -50.2
-49.5 1916.0 -49.5
-48.79 1917.0 -48.79
-49.5 1918.0 -49.5
-50.2 1919.0 -50.2
-48.79 1920.0 -48.79
-51.62 1921.0 -51.62
-51.62 1922.0 -51.62
-47.38 1923.0 -47.38
-47.38 1924.0 -47.38
-47.38 1925.0 -47.38
-48.79 1926.0 -48.79
-48.79 1927.0 -48.79
-48.79 1928.0 -48.79
-48.79 1929.0 -48.79
-49.5 1930.0 -49.5
-48.79 1931.0 -48.79
-50.2 1932.0 -50.2
-50.2 1933.0 -50.2
-50.2 1934.0 -50.2
-50.2 1935.0 -50.2
-51.62 1936.0 -51.62
-51.62 1937.0 -51.62
-51.62 1938.0 -51.62
-51.62 1939.0 -51.62
-53.03 1940.0 -53.03
-48.79 1941.0 -48.79
-48.79 1942.0 -48.79
-50.2 1943.0 -50.2
-50.91 1944.0 -50.91
-51.62 1945.0 -51.62
-51.62 1946.0 -51.62
-51.62 1947.0 -51.62
-51.62 1948.0 -51.62
-51.62 1949.0 -51.62
-51.62 1950.0 -51.62
-53.03 1951.0 -53.03
-51.62 1952.0 -51.62
-51.62 1953.0 -51.62
-51.62 1954.0 -51.62
-54.45 1955.0 -54.45
-54.45 1956.0 -54.45
-55.86 1957.0 -55.86
-55.86 1958.0 -55.86
-62.93 1959.0 -62.93
-62.23 1960.0 -62.23
-64.35 1961.0 -64.35
-55.15 1962.0 -55.15
-55.15 1963.0 -55.15
-54.45 1964.0 -54.45
-53.03 1965.0 -53.03
-53.74 1966.0 -53.74
-54.45 1967.0 -54.45
-55.86 1968.0 -55.86
-55.86 1969.0 -55.86
-55.86 1970.0 -55.86
-56.57 1971.0 -56.57
-57.28 1972.0 -57.28
-57.28 1973.0 -57.28
-57.28 1974.0 -57.28
-56.57 1975.0 -56.57
-55.86 1976.0 -55.86
-55.86 1977.0 -55.86
-55.86 1978.0 -55.86
-57.98 1979.0 -57.98
-53.03 1980.0 -53.03
-56.57 1981.0 -56.57
-53.03 1982.0 -53.03
-53.03 1983.0 -53.03
-53.03 1984.0 -53.03
-53.03 1985.0 -53.03
-57.28 1986.0 -57.28
-54.45 1987.0 -54.45
-54.45 1988.0 -54.45
-54.45 1989.0 -54.45
-55.86 1990.0 -55.86
-55.86 1991.0 -55.86
-55.86 1992.0 -55.86
-55.86 1993.0 -55.86
-57.28 1994.0 -57.28
-56.57 1995.0 -56.57
-56.57 1996.0 -56.57
-57.28 1997.0 -57.28
-54.45 1998.0 -54.45
-55.86 1999.0 -55.86
-55.86 2000.0 -55.86
-55.86 2001.0 -55.86
-56.57 2002.0 -56.57
-57.98 2003.0 -57.98
-55.86 2004.0 -55.86
-58.69 2005.0 -58.69
-58.69 2006.0 -58.69
-58.69 2007.0 -58.69
-57.98 2008.0 -57.98
-57.98 2009.0 -57.98
-57.28 2010.0 -57.28
-57.28 2011.0 -57.28
-57.28 2012.0 -57.28
-59.4 2013.0 -59.4
-57.28 2014.0 -57.28
-57.28 2015.0 -57.28
-57.98 2016.0 -57.98
-67.18 2017.0 -67.18
-57.28 2018.0 -57.28
-61.52 2019.0 -61.52
-55.15 2020.0 -55.15
-54.45 2021.0 -54.45
-55.86 2022.0 -55.86
-55.15 2023.0 -55.15
-57.28 2024.0 -57.28
-57.28 2025.0 -57.28
-57.28 2026.0 -57.28
-57.28 2027.0 -57.28
-57.28 2028.0 -57.28
-57.28 2029.0 -57.28
-57.28 2030.0 -57.28
-58.69 2031.0 -58.69
-58.69 2032.0 -58.69
-60.1 2033.0 -60.1
-61.52 2034.0 -61.52
-61.52 2035.0 -61.52
-61.52 2036.0 -61.52
-61.52 2037.0 -61.52
-61.52 2038.0 -61.52
-55.86 2039.0 -55.86
-55.86 2040.0 -55.86
-56.57 2041.0 -56.57
-56.57 2042.0 -56.57
-55.15 2043.0 -55.15
-54.45 2044.0 -54.45
-54.45 2045.0 -54.45
-54.45 2046.0 -54.45
-54.45 2047.0 -54.45
-54.45 2048.0 -54.45
-53.74 2051.0 -53.74
-12.01 1630.0 -4.97
-12.01 1631.0 -4.97
-13.86 1632.0 -5.74
-13.86 1633.0 -5.74
-12.01 1634.0 -4.97
-12.01 1635.0 -4.97
-12.01 1636.0 -4.97
60.05 1675.0 24.87
60.98 1676.0 25.26
61.9 1677.0 25.64
61.9 1678.0 25.64
62.82 1679.0 26.02
63.75 1680.0 26.41
66.52 1686.0 27.55
67.44 1687.0 27.94
67.44 1688.0 27.94
67.44 1689.0 27.94
67.44 1690.0 27.94
67.44 1691.0 27.94
-41.57 1692.0 -17.22
-41.57 1693.0 -17.22
-36.03 1694.0 -14.92
-36.03 1695.0 -14.92
-36.96 1696.0 -15.31
-36.96 1697.0 -15.31
-39.73 1698.0 -16.46
-39.73 1699.0 -16.46
-39.73 1700.0 -16.46
-36.03 1719.0 -14.92
-39.73 1733.0 -16.46
-40.65 1734.0 -16.84
-44.35 1735.0 -18.37
-43.42 1736.0 -17.99
-43.42 1737.0 -17.99
-43.42 1738.0 -17.99
-47.12 1739.0 -19.52
-47.12 1740.0 -19.52
-45.27 1741.0 -18.75
-52.66 1752.0 -21.81
-52.66 1753.0 -21.81
-52.66 1754.0 -21.81
-52.66 1755.0 -21.81
-52.66 1756.0 -21.81
-52.66 1757.0 -21.81
-52.66 1758.0 -21.81
-52.66 1759.0 -21.81
-53.59 1760.0 -22.2
-54.51 1761.0 -22.58
-58.2 1762.0 -24.11
-58.2 1763.0 -24.11
-58.2 1764.0 -24.11
-57.28 1765.0 -23.73
-57.28 1766.0 -23.73
-55.43 1767.0 -22.96
-56.36 1768.0 -23.34
-56.36 1769.0 -23.34
-56.36 1770.0 -23.34
-57.28 1771.0 -23.73
-57.28 1772.0 -23.73
-57.28 1773.0 -23.73
-58.2 1774.0 -24.11
-60.05 1775.0 -24.87
-58.2 1776.0 -24.11
-58.2 1777.0 -24.11
-61.9 1778.0 -25.64
-61.9 1779.0 -25.64
-60.98 1780.0 -25.26
-60.05 1781.0 -24.87
-61.9 1782.0 -25.64
-63.75 1783.0 -26.41
-62.82 1784.0 -26.02
-61.9 1785.0 -25.64
-61.9 1786.0 -25.64
-60.05 1787.0 -24.87
-67.44 1788.0 -27.94
-67.44 1789.0 -27.94
-60.05 1790.0 -24.87
-60.05 1791.0 -24.87
-60.05 1792.0 -24.87
-60.05 1793.0 -24.87
-61.9 1794.0 -25.64
-61.9 1795.0 -25.64
-61.9 1796.0 -25.64
-63.75 1797.0 -26.41
-63.75 1798.0 -26.41
-61.9 1799.0 -25.64
-63.75 1800.0 -26.41
-68.37 1801.0 -28.32
-65.6 1802.0 -27.17
-65.6 1803.0 -27.17
-65.6 1804.0 -27.17
-64.67 1805.0 -26.79
-67.44 1806.0 -27.94
-67.44 1807.0 -27.94
-72.06 1808.0 -29.85
-71.14 1809.0 -29.47
-63.75 1810.0 -26.41
-64.67 1811.0 -26.79
-64.67 1812.0 -26.79
-65.6 1813.0 -27.17
-65.6 1814.0 -27.17
-63.75 1815.0 -26.41
-67.44 1816.0 -27.94
-67.44 1817.0 -27.94
-67.44 1818.0 -27.94
-67.44 1819.0 -27.94
-74.83 1820.0 -31.0
-74.83 1821.0 -31.0
-67.44 1822.0 -27.94
-67.44 1823.0 -27.94
-68.37 1824.0 -28.32
-68.37 1825.0 -28.32
-72.99 1826.0 -30.23
-78.53 1827.0 -32.53
-67.44 1828.0 -27.94
-67.44 1829.0 -27.94
-67.44 1830.0 -27.94
-63.75 1831.0 -26.41
-63.75 1832.0 -26.41
-63.75 1833.0 -26.41
-65.6 1834.0 -27.17
-66.52 1835.0 -27.55
-66.52 1836.0 -27.55
-65.6 1837.0 -27.17
-67.44 1838.0 -27.94
-67.44 1839.0 -27.94
-67.44 1840.0 -27.94
-67.44 1841.0 -27.94
-67.44 1842.0 -27.94
-67.44 1843.0 -27.94
-67.44 1844.0 -27.94
-68.37 1845.0 -28.32
-63.75 1846.0 -26.41
-63.75 1847.0 -26.41
-63.75 1848.0 -26.41
-63.75 1849.0 -26.41
-63.75 1850.0 -26.41
-62.82 1851.0 -26.02
-66.52 1852.0 -27.55
-64.67 1853.0 -26.79
-64.67 1854.0 -26.79
-65.6 1855.0 -27.17
-65.6 1856.0 -27.17
-72.99 1857.0 -30.23
-67.44 1858.0 -27.94
-67.44 1859.0 -27.94
-66.52 1860.0 -27.55
-65.6 1861.0 -27.17
-66.52 1862.0 -27.55
-61.9 1863.0 -25.64
-61.9 1864.0 -25.64
-61.9 1865.0 -25.64
-60.98 1866.0 -25.26
-60.98 1867.0 -25.26
-60.05 1868.0 -24.87
-60.05 1869.0 -24.87
-60.98 1870.0 -25.26
-63.75 1871.0 -26.41
-63.75 1872.0 -26.41
-60.98 1873.0 -25.26
-62.82 1874.0 -26.02
-71.14 1875.0 -29.47
-71.14 1876.0 -29.47
-63.75 1877.0 -26.41
-63.75 1878.0 -26.41
-63.75 1879.0 -26.41
-63.75 1880.0 -26.41
-65.6 1881.0 -27.17
-65.6 1882.0 -27.17
-56.36 1883.0 -23.34
-58.2 1884.0 -24.11
-60.05 1885.0 -24.87
-59.13 1886.0 -24.49
-58.2 1887.0 -24.11
-58.2 1888.0 -24.11
-59.13 1889.0 -24.49
-59.13 1890.0 -24.49
-58.2 1891.0 -24.11
-58.2 1892.0 -24.11
-58.2 1893.0 -24.11
-58.2 1894.0 -24.11
-60.98 1895.0 -25.26
-60.98 1896.0 -25.26
-60.05 1897.0 -24.87
-60.98 1898.0 -25.26
-61.9 1899.0 -25.64
-62.82 1900.0 -26.02
-67.44 1901.0 -27.94
-68.37 1902.0 -28.32
-55.43 1903.0 -22.96
-56.36 1904.0 -23.34
-56.36 1905.0 -23.34
-56.36 1906.0 -23.34
-60.05 1907.0 -24.87
-59.13 1908.0 -24.49
-58.2 1909.0 -24.11
-60.05 1910.0 -24.87
-61.9 1911.0 -25.64
-60.05 1912.0 -24.87
-59.13 1913.0 -24.49
-61.9 1914.0 -25.64
-61.9 1915.0 -25.64
-61.9 1916.0 -25.64
-61.9 1917.0 -25.64
-60.98 1918.0 -25.26
-60.05 1919.0 -24.87
-60.05 1920.0 -24.87
-60.05 1921.0 -24.87
-60.05 1922.0 -24.87
-61.9 1923.0 -25.64
-61.9 1924.0 -25.64
-61.9 1925.0 -25.64
-60.98 1926.0 -25.26
-64.67 1927.0 -26.79
-64.67 1928.0 -26.79
-65.6 1929.0 -27.17
-65.6 1930.0 -27.17
-65.6 1931.0 -27.17
-65.6 1932.0 -27.17
-62.82 1933.0 -26.02
-65.6 1934.0 -27.17
-65.6 1935.0 -27.17
-64.67 1936.0 -26.79
-65.6 1937.0 -27.17
-68.37 1938.0 -28.32
-75.76 1939.0 -31.38
-76.68 1940.0 -31.76
-61.9 1941.0 -25.64
-65.6 1942.0 -27.17
-64.67 1943.0 -26.79
-63.75 1944.0 -26.41
-67.44 1945.0 -27.94
-67.44 1946.0 -27.94
-67.44 1947.0 -27.94
-67.44 1948.0 -27.94
-67.44 1949.0 -27.94
-71.14 1950.0 -29.47
-71.14 1951.0 -29.47
-80.38 1952.0 -33.29
-69.29 1953.0 -28.7
-69.29 1954.0 -28.7
-72.06 1955.0 -29.85
-72.06 1956.0 -29.85
-82.23 1957.0 -34.06
-83.15 1958.0 -34.44
-84.07 1959.0 -34.82
-84.07 1960.0 -34.82
-70.21 1961.0 -29.08
-68.37 1962.0 -28.32
-68.37 1963.0 -28.32
-69.29 1964.0 -28.7
-69.29 1965.0 -28.7
-69.29 1966.0 -28.7
-68.37 1967.0 -28.32
-69.29 1968.0 -28.7
-71.14 1969.0 -29.47
-70.21 1970.0 -29.08
-71.14 1971.0 -29.47
-70.21 1972.0 -29.08
-69.29 1973.0 -28.7
-69.29 1974.0 -28.7
-72.06 1975.0 -29.85
-71.14 1976.0 -29.47
-71.14 1977.0 -29.47
-71.14 1978.0 -29.47
-70.21 1979.0 -29.08
-69.29 1980.0 -28.7
-69.29 1981.0 -28.7
-69.29 1982.0 -28.7
-69.29 1983.0 -28.7
-69.29 1984.0 -28.7
-72.99 1985.0 -30.23
-68.37 1986.0 -28.32
-68.37 1987.0 -28.32
-69.29 1988.0 -28.7
-78.53 1989.0 -32.53
-78.53 1990.0 -32.53
-78.53 1991.0 -32.53
-71.14 1992.0 -29.47
-72.99 1993.0 -30.23
-72.06 1994.0 -29.85
-81.3 1995.0 -33.68
-81.3 1996.0 -33.68
-69.29 1997.0 -28.7
-67.44 1998.0 -27.94
-67.44 1999.0 -27.94
-68.37 2000.0 -28.32
-69.29 2001.0 -28.7
-69.29 2002.0 -28.7
-69.29 2003.0 -28.7
-69.29 2004.0 -28.7
-69.29 2005.0 -28.7
-67.44 2006.0 -27.94
-69.29 2007.0 -28.7
-68.37 2008.0 -28.32
-69.29 2009.0 -28.7
-71.14 2010.0 -29.47
-71.14 2011.0 -29.47
-72.06 2012.0 -29.85
-72.99 2013.0 -30.23
-72.99 2014.0 -30.23
-67.44 2015.0 -27.94
-67.44 2016.0 -27.94
-70.21 2017.0 -29.08
-69.29 2018.0 -28.7
-69.29 2019.0 -28.7
-71.14 2020.0 -29.47
-71.14 2021.0 -29.47
-71.14 2022.0 -29.47
-70.21 2023.0 -29.08
-71.14 2024.0 -29.47
-72.06 2025.0 -29.85
-69.29 2026.0 -28.7
-69.29 2027.0 -28.7
-69.29 2028.0 -28.7
-72.99 2029.0 -30.23
-72.99 2030.0 -30.23
-73.91 2031.0 -30.61
-76.68 2032.0 -31.76
-75.76 2033.0 -31.38
-75.76 2034.0 -31.38
-75.76 2035.0 -31.38
-75.76 2036.0 -31.38
-82.23 2037.0 -34.06
-74.83 2038.0 -31.0
-63.75 2039.0 -26.41
-63.75 2040.0 -26.41
-65.6 2041.0 -27.17
-65.6 2042.0 -27.17
-65.6 2043.0 -27.17
-76.68 2044.0 -31.76
-76.68 2045.0 -31.76
-66.52 2048.0 -27.55
-66.52 2049.0 -27.55
-57.28 2055.0 -23.73
-54.51 2077.0 -22.58
-54.51 2093.0 -22.58
-18.48 2161.0 -7.65
-17.55 2162.0 -7.27
-347.38 2405.0 -143.89
-344.61 2406.0 -142.74
-344.61 2407.0 -142.74
-344.61 2408.0 -142.74
-302.11 2473.0 -125.14
-299.34 2477.0 -123.99
-302.11 2479.0 -125.14
-299.34 2491.0 -123.99
-303.03 2493.0 -125.52
-303.03 2494.0 -125.52
-302.11 2495.0 -125.14
-303.03 2496.0 -125.52
-302.11 2497.0 -125.14
-302.11 2498.0 -125.14
14.0 1625.0 0.0
15.0 1626.0 0.0
17.0 1627.0 0.0
15.0 1629.0 0.0
15.0 1630.0 0.0
15.0 1631.0 0.0
15.0 1632.0 0.0
9.0 1633.0 0.0
17.0 1634.0 0.0
17.0 1635.0 0.0
17.0 1636.0 0.0
18.0 1637.0 0.0
13.0 1638.0 0.0
13.0 1639.0 0.0
14.0 1640.0 0.0
-37.0 1691.0 -0.0
-15.0 1694.0 -0.0
-15.0 1695.0 -0.0
-15.0 1696.0 -0.0
-31.0 1701.0 -0.0
-63.0 1737.0 -0.0
-63.0 1738.0 -0.0
-63.0 1739.0 -0.0
-59.0 1740.0 -0.0
-60.0 1741.0 -0.0
-55.0 1742.0 -0.0
-55.0 1743.0 -0.0
-55.0 1744.0 -0.0
-54.0 1745.0 -0.0
-53.0 1746.0 -0.0
-53.0 1747.0 -0.0
-53.0 1748.0 -0.0
-51.0 1749.0 -0.0
-51.0 1750.0 -0.0
-51.0 1751.0 -0.0
-51.0 1752.0 -0.0
-50.0 1753.0 -0.0
-63.0 1754.0 -0.0
-63.0 1755.0 -0.0
-44.0 1756.0 -0.0
-45.0 1757.0 -0.0
-44.0 1758.0 -0.0
-44.0 1759.0 -0.0
-55.0 1760.0 -0.0
-55.0 1761.0 -0.0
-55.0 1762.0 -0.0
-53.0 1763.0 -0.0
-53.0 1764.0 -0.0
-46.0 1765.0 -0.0
-47.0 1766.0 -0.0
-47.0 1767.0 -0.0
-49.0 1768.0 -0.0
-49.0 1769.0 -0.0
-49.0 1770.0 -0.0
-49.0 1771.0 -0.0
-49.0 1772.0 -0.0
-45.0 1773.0 -0.0
-43.0 1774.0 -0.0
-42.0 1775.0 -0.0
-43.0 1776.0 -0.0
-44.0 1777.0 -0.0
-43.0 1778.0 -0.0
-43.0 1779.0 -0.0
-44.0 1780.0 -0.0
-45.0 1781.0 -0.0
-45.0 1782.0 -0.0
-45.0 1783.0 -0.0
-46.0 1784.0 -0.0
-49.0 1786.0 -0.0
-49.0 1787.0 -0.0
-49.0 1788.0 -0.0
-55.0 1791.0 -0.0
-45.0 1792.0 -0.0
-47.0 1793.0 -0.0
-48.0 1794.0 -0.0
-49.0 1795.0 -0.0
-49.0 1796.0 -0.0
-49.0 1797.0 -0.0
-51.0 1798.0 -0.0
-50.0 1799.0 -0.0
-50.0 1800.0 -0.0
-51.0 1802.0 -0.0
-51.0 1803.0 -0.0
-51.0 1804.0 -0.0
-52.0 1805.0 -0.0
-52.0 1806.0 -0.0
-55.0 1807.0 -0.0
-54.0 1808.0 -0.0
-47.0 1809.0 -0.0
-49.0 1810.0 -0.0
-49.0 1811.0 -0.0
-49.0 1812.0 -0.0
-49.0 1813.0 -0.0
-50.0 1814.0 -0.0
-51.0 1815.0 -0.0
-51.0 1816.0 -0.0
-51.0 1817.0 -0.0
-51.0 1818.0 -0.0
-57.0 1819.0 -0.0
-53.0 1820.0 -0.0
-53.0 1821.0 -0.0
-53.0 1822.0 -0.0
-52.0 1823.0 -0.0
-57.0 1824.0 -0.0
-57.0 1825.0 -0.0
-57.0 1826.0 -0.0
-49.0 1827.0 -0.0
-50.0 1828.0 -0.0
-51.0 1829.0 -0.0
-51.0 1830.0 -0.0
-51.0 1831.0 -0.0
-51.0 1832.0 -0.0
-53.0 1833.0 -0.0
-52.0 1834.0 -0.0
-51.0 1835.0 -0.0
-53.0 1836.0 -0.0
-53.0 1837.0 -0.0
-53.0 1838.0 -0.0
-53.0 1839.0 -0.0
-53.0 1840.0 -0.0
-54.0 1841.0 -0.0
-54.0 1842.0 -0.0
-55.0 1843.0 -0.0
-55.0 1844.0 -0.0
-54.0 1845.0 -0.0
-55.0 1846.0 -0.0
-49.0 1847.0 -0.0
-50.0 1848.0 -0.0
-51.0 1849.0 -0.0
-50.0 1850.0 -0.0
-51.0 1851.0 -0.0
-51.0 1852.0 -0.0
-53.0 1853.0 -0.0
-51.0 1854.0 -0.0
-51.0 1855.0 -0.0
-51.0 1856.0 -0.0
-61.0 1857.0 -0.0
-52.0 1858.0 -0.0
-54.0 1859.0 -0.0
-54.0 1860.0 -0.0
-56.0 1861.0 -0.0
-55.0 1862.0 -0.0
-51.0 1863.0 -0.0
-52.0 1864.0 -0.0
-52.0 1865.0 -0.0
-52.0 1866.0 -0.0
-51.0 1867.0 -0.0
-52.0 1868.0 -0.0
-53.0 1869.0 -0.0
-54.0 1870.0 -0.0
-51.0 1871.0 -0.0
-53.0 1872.0 -0.0
-53.0 1873.0 -0.0
-53.0 1874.0 -0.0
-52.0 1875.0 -0.0
-63.0 1876.0 -0.0
-63.0 1877.0 -0.0
-55.0 1878.0 -0.0
-55.0 1879.0 -0.0
-55.0 1880.0 -0.0
-55.0 1881.0 -0.0
-58.0 1882.0 -0.0
-58.0 1883.0 -0.0
-57.0 1884.0 -0.0
-54.0 1885.0 -0.0
-55.0 1886.0 -0.0
-55.0 1887.0 -0.0
-55.0 1888.0 -0.0
-55.0 1889.0 -0.0
-57.0 1890.0 -0.0
-57.0 1891.0 -0.0
-58.0 1892.0 -0.0
-59.0 1893.0 -0.0
-58.0 1894.0 -0.0
-57.0 1895.0 -0.0
-59.0 1896.0 -0.0
-67.0 1897.0 -0.0
-61.0 1898.0 -0.0
-61.0 1899.0 -0.0
-61.0 1900.0 -0.0
-63.0 1901.0 -0.0
-66.0 1902.0 -0.0
-65.0 1903.0 -0.0
-65.0 1904.0 -0.0
-57.0 1905.0 -0.0
-59.0 1906.0 -0.0
-59.0 1907.0 -0.0
-59.0 1908.0 -0.0
-61.0 1909.0 -0.0
-62.0 1910.0 -0.0
-64.0 1911.0 -0.0
-63.0 1912.0 -0.0
-64.0 1913.0 -0.0
-63.0 1914.0 -0.0
-73.0 1915.0 -0.0
-66.0 1916.0 -0.0
-65.0 1917.0 -0.0
-65.0 1918.0 -0.0
-65.0 1919.0 -0.0
-65.0 1920.0 -0.0
-61.0 1921.0 -0.0
-60.0 1922.0 -0.0
-63.0 1923.0 -0.0
-64.0 1924.0 -0.0
-65.0 1925.0 -0.0
-65.0 1926.0 -0.0
-65.0 1927.0 -0.0
-65.0 1928.0 -0.0
-65.0 1929.0 -0.0
-65.0 1930.0 -0.0
-63.0 1931.0 -0.0
-65.0 1932.0 -0.0
-65.0 1933.0 -0.0
-65.0 1934.0 -0.0
-65.0 1935.0 -0.0
-65.0 1936.0 -0.0
-66.0 1937.0 -0.0
-67.0 1938.0 -0.0
-63.0 1939.0 -0.0
-63.0 1940.0 -0.0
-61.0 1941.0 -0.0
-65.0 1942.0 -0.0
-65.0 1943.0 -0.0
-66.0 1944.0 -0.0
-66.0 1945.0 -0.0
-65.0 1946.0 -0.0
-64.0 1947.0 -0.0
-65.0 1948.0 -0.0
-65.0 1949.0 -0.0
-57.0 2051.0 -0.0
-57.0 2052.0 -0.0
-57.0 2053.0 -0.0
-57.0 2054.0 -0.0
-57.0 2055.0 -0.0
-57.0 2056.0 -0.0
-58.0 2057.0 -0.0
-59.0 2058.0 -0.0
-59.0 2059.0 -0.0
-59.0 2060.0 -0.0
-59.0 2061.0 -0.0
-59.0 2062.0 -0.0
-59.0 2063.0 -0.0
-59.0 2064.0 -0.0
-61.0 2065.0 -0.0
-61.0 2066.0 -0.0
-61.0 2067.0 -0.0
-62.0 2075.0 -0.0
-53.0 2095.0 -0.0
-33.0 2294.0 -0.0
-34.0 2295.0 -0.0
-33.0 2296.0 -0.0
-39.0 2297.0 -0.0
-41.0 2298.0 -0.0
-41.0 2299.0 -0.0
-41.0 2300.0 -0.0
-344.0 2497.0 -0.0
-343.0 2501.0 -0.0
-339.0 2502.0 -0.0
23.1 1631.0 -9.57
22.17 1632.0 -9.18
22.17 1633.0 -9.18
22.17 1634.0 -9.18
21.25 1635.0 -8.8
24.02 1636.0 -9.95
24.94 1637.0 -10.33
24.94 1638.0 -10.33
106.25 1648.0 -44.01
106.25 1649.0 -44.01
24.94 1651.0 -10.33
25.87 1652.0 -10.72
26.79 1653.0 -11.1
25.87 1654.0 -10.72
-26.79 1676.0 11.1
-27.72 1677.0 11.48
-26.79 1678.0 11.1
-26.79 1679.0 11.1
-26.79 1680.0 11.1
-4.62 1687.0 1.91
-4.62 1688.0 1.91
-4.62 1689.0 1.91
-4.62 1690.0 1.91
128.42 1700.0 -53.19
129.34 1701.0 -53.58
130.27 1702.0 -53.96
-54.51 1730.0 22.58
-54.51 1731.0 22.58
-54.51 1732.0 22.58
-54.51 1733.0 22.58
-43.42 1734.0 17.99
-43.42 1735.0 17.99
-43.42 1736.0 17.99
-42.5 1737.0 17.6
-42.5 1738.0 17.6
-43.42 1739.0 17.99
-43.42 1740.0 17.99
-52.66 1741.0 21.81
-52.66 1742.0 21.81
-52.66 1743.0 21.81
-52.66 1744.0 21.81
-49.89 1745.0 20.66
-48.97 1746.0 20.28
-48.97 1747.0 20.28
-48.97 1748.0 20.28
-46.19 1749.0 19.13
-57.28 1750.0 23.73
-57.28 1751.0 23.73
-56.36 1752.0 23.34
-36.03 1785.0 14.92
-36.03 1786.0 14.92
-36.03 1787.0 14.92
-36.03 1788.0 14.92
-36.03 1789.0 14.92
-36.03 1790.0 14.92
-36.03 1791.0 14.92
-35.11 1792.0 14.54
-34.18 1793.0 14.16
-36.03 1794.0 14.92
-36.03 1795.0 14.92
-36.03 1796.0 14.92
-36.03 1797.0 14.92
-36.03 1798.0 14.92
-37.88 1799.0 15.69
-37.88 1800.0 15.69
-36.96 1801.0 15.31
-37.88 1802.0 15.69
-33.26 1803.0 13.78
-43.42 1804.0 17.99
-43.42 1805.0 17.99
-42.5 1806.0 17.6
-42.5 1807.0 17.6
-36.03 1808.0 14.92
-34.18 1809.0 14.16
-36.96 1810.0 15.31
-36.96 1811.0 15.31
-36.03 1812.0 14.92
-36.03 1813.0 14.92
-36.96 1814.0 15.31
-37.88 1815.0 15.69
-39.73 1816.0 16.46
-41.57 1817.0 17.22
-41.57 1818.0 17.22
-37.88 1819.0 15.69
-37.88 1820.0 15.69
-40.65 1821.0 16.84
-39.73 1822.0 16.46
-39.73 1823.0 16.46
-39.73 1824.0 16.46
-44.35 1825.0 18.37
-36.03 1826.0 14.92
-37.88 1827.0 15.69
-37.88 1828.0 15.69
-37.88 1829.0 15.69
-37.88 1830.0 15.69
-38.8 1831.0 16.07
-37.88 1832.0 15.69
-36.03 1833.0 14.92
-41.57 1834.0 17.22
-41.57 1835.0 17.22
-40.65 1836.0 16.84
-40.65 1837.0 16.84
-40.65 1838.0 16.84
-39.73 1839.0 16.46
-40.65 1840.0 16.84
-41.57 1841.0 17.22
-45.27 1842.0 18.75
-45.27 1843.0 18.75
-37.88 1844.0 15.69
-36.96 1845.0 15.31
-39.73 1846.0 16.46
-39.73 1847.0 16.46
-39.73 1848.0 16.46
-39.73 1849.0 16.46
-39.73 1850.0 16.46
-39.73 1851.0 16.46
-39.73 1852.0 16.46
-40.65 1853.0 16.84
-47.12 1854.0 19.52
-47.12 1855.0 19.52
-47.12 1856.0 19.52
-41.57 1857.0 17.22
-42.5 1858.0 17.6
-43.42 1859.0 17.99
-43.42 1860.0 17.99
-37.88 1861.0 15.69
-38.8 1862.0 16.07
-38.8 1863.0 16.07
-38.8 1864.0 16.07
-39.73 1865.0 16.46
-39.73 1866.0 16.46
-41.57 1867.0 17.22
-40.65 1868.0 16.84
-39.73 1869.0 16.46
-43.42 1870.0 17.99
-42.5 1871.0 17.6
-42.5 1872.0 17.6
-42.5 1873.0 17.6
-50.81 1874.0 21.05
-50.81 1875.0 21.05
-43.42 1876.0 17.99
-43.42 1877.0 17.99
-44.35 1878.0 18.37
-45.27 1879.0 18.75
-47.12 1880.0 19.52
-47.12 1881.0 19.52
-52.66 1882.0 21.81
-40.65 1883.0 16.84
-41.57 1884.0 17.22
-42.5 1885.0 17.6
-44.35 1886.0 18.37
-45.27 1887.0 18.75
-45.27 1888.0 18.75
-45.27 1889.0 18.75
-43.42 1890.0 17.99
-43.42 1891.0 17.99
-47.12 1892.0 19.52
-47.12 1893.0 19.52
-47.12 1894.0 19.52
-48.97 1895.0 20.28
-50.81 1896.0 21.05
-50.81 1897.0 21.05
-48.97 1898.0 20.28
-48.97 1899.0 20.28
-55.43 1900.0 22.96
-54.51 1901.0 22.58
-45.27 1902.0 18.75
-45.27 1903.0 18.75
-48.04 1904.0 19.9
-48.04 1905.0 19.9
-48.04 1906.0 19.9
-50.81 1907.0 21.05
-50.81 1908.0 21.05
-50.81 1909.0 21.05
-50.81 1910.0 21.05
-48.97 1911.0 20.28
-51.74 1912.0 21.43
-51.74 1913.0 21.43
-51.74 1914.0 21.43
-50.81 1915.0 21.05
-52.66 1916.0 21.81
-53.59 1917.0 22.2
-47.12 1918.0 19.52
-50.81 1919.0 21.05
-49.89 1920.0 20.66
-48.97 1921.0 20.28
-30.49 1975.0 12.63
-30.49 1976.0 12.63
-31.41 1977.0 13.01
-31.41 1978.0 13.01
-31.41 1979.0 13.01
-32.34 1980.0 13.39
-32.34 1981.0 13.39
-32.34 1982.0 13.39
-32.34 1983.0 13.39
-34.18 1989.0 14.16
-36.03 1995.0 14.92
-36.03 1996.0 14.92
-36.03 1997.0 14.92
-36.03 1998.0 14.92
-36.03 1999.0 14.92
-36.96 2000.0 15.31
-36.96 2001.0 15.31
-37.88 2002.0 15.69
-37.88 2003.0 15.69
-37.88 2004.0 15.69
-37.88 2005.0 15.69
-37.88 2006.0 15.69
-37.88 2007.0 15.69
-48.97 2048.0 20.28
-48.97 2049.0 20.28
-48.97 2050.0 20.28
-48.97 2051.0 20.28
-48.97 2052.0 20.28
-48.97 2053.0 20.28
-49.89 2054.0 20.66
-50.81 2055.0 21.05
-50.81 2056.0 21.05
-50.81 2057.0 21.05
-50.81 2058.0 21.05
-50.81 2059.0 21.05
-50.81 2060.0 21.05
-52.66 2061.0 21.81
-52.66 2062.0 21.81
-52.66 2063.0 21.81
-52.66 2064.0 21.81
-52.66 2065.0 21.81
-52.66 2066.0 21.81
-52.66 2067.0 21.81
-53.59 2068.0 22.2
-54.51 2069.0 22.58
-54.51 2070.0 22.58
-54.51 2071.0 22.58
-54.51 2072.0 22.58
-54.51 2073.0 22.58
-54.51 2074.0 22.58
-54.51 2075.0 22.58
-55.43 2076.0 22.96
-56.36 2077.0 23.34
-56.36 2078.0 23.34
-56.36 2079.0 23.34
-56.36 2080.0 23.34
-56.36 2081.0 23.34
-56.36 2082.0 23.34
-58.2 2083.0 24.11
-58.2 2084.0 24.11
-58.2 2085.0 24.11
-58.2 2086.0 24.11
-58.2 2087.0 24.11
-58.2 2088.0 24.11
-58.2 2089.0 24.11
-58.2 2090.0 24.11
-60.05 2091.0 24.87
-60.05 2092.0 24.87
-60.05 2093.0 24.87
-60.05 2094.0 24.87
-60.05 2095.0 24.87
-60.05 2096.0 24.87
-60.98 2097.0 25.26
-61.9 2100.0 25.64
-61.9 2101.0 25.64
-61.9 2102.0 25.64
-61.9 2103.0 25.64
-62.82 2104.0 26.02
-62.82 2105.0 26.02
-62.82 2106.0 26.02
-63.75 2107.0 26.41
-61.9 2157.0 25.64
106.07 1641.0 -106.07
106.77 1642.0 -106.77
107.48 1643.0 -107.48
57.98 1658.0 -57.98
57.98 1659.0 -57.98
55.86 1660.0 -55.86
55.86 1661.0 -55.86
55.86 1662.0 -55.86
55.86 1663.0 -55.86
21.92 1679.0 -21.92
21.92 1680.0 -21.92
21.92 1681.0 -21.92
116.67 1689.0 -116.67
-9.19 1744.0 9.19
-9.19 1745.0 9.19
-9.19 1746.0 9.19
-9.19 1750.0 9.19
-8.49 1751.0 8.49
-9.19 1752.0 9.19
-9.19 1753.0 9.19
-9.9 1754.0 9.9
-10.61 1755.0 10.61
-10.61 1756.0 10.61
-10.61 1757.0 10.61
-11.31 1758.0 11.31
-12.02 1759.0 12.02
-12.02 1760.0 12.02
-12.02 1761.0 12.02
-12.73 1762.0 12.73
-13.44 1763.0 13.44
-13.44 1764.0 13.44
-16.26 1768.0 16.26
-12.02 1769.0 12.02
-12.02 1770.0 12.02
-12.02 1771.0 12.02
-12.73 1772.0 12.73
-13.44 1773.0 13.44
-13.44 1774.0 13.44
-13.44 1775.0 13.44
-13.44 1776.0 13.44
-14.14 1777.0 14.14
-14.85 1778.0 14.85
-14.85 1779.0 14.85
-14.85 1780.0 14.85
-16.26 1781.0 16.26
-16.26 1782.0 16.26
-16.26 1783.0 16.26
-17.68 1784.0 17.68
-17.68 1785.0 17.68
-14.85 1786.0 14.85
-14.85 1787.0 14.85
-14.85 1788.0 14.85
-13.44 1789.0 13.44
-13.44 1790.0 13.44
-16.26 1791.0 16.26
-16.26 1792.0 16.26
-16.26 1793.0 16.26
-16.26 1794.0 16.26
-14.85 1795.0 14.85
-16.26 1796.0 16.26
-16.26 1797.0 16.26
-16.97 1798.0 16.97
-17.68 1799.0 17.68
-18.38 1800.0 18.38
-19.09 1801.0 19.09
-16.97 1802.0 16.97
-16.26 1803.0 16.26
-21.92 1804.0 21.92
-14.85 1805.0 14.85
-14.85 1806.0 14.85
-14.85 1807.0 14.85
-16.26 1808.0 16.26
-16.26 1809.0 16.26
-16.26 1810.0 16.26
-17.68 1811.0 17.68
-16.97 1812.0 16.97
-16.26 1813.0 16.26
-16.26 1814.0 16.26
-23.33 1815.0 23.33
-23.33 1816.0 23.33
-23.33 1817.0 23.33
-23.33 1818.0 23.33
-20.51 1819.0 20.51
-20.51 1820.0 20.51
-23.33 1821.0 23.33
-23.33 1822.0 23.33
-20.51 1823.0 20.51
-16.26 1824.0 16.26
-16.26 1825.0 16.26
-16.26 1826.0 16.26
-16.26 1827.0 16.26
-17.68 1828.0 17.68
-17.68 1829.0 17.68
-17.68 1830.0 17.68
-19.09 1831.0 19.09
-18.38 1832.0 18.38
-19.09 1833.0 19.09
-19.09 1834.0 19.09
-19.09 1835.0 19.09
-19.09 1836.0 19.09
-19.8 1837.0 19.8
-20.51 1838.0 20.51
-20.51 1839.0 20.51
-21.92 1840.0 21.92
-21.92 1841.0 21.92
-21.92 1842.0 21.92
-19.09 1843.0 19.09
-19.09 1844.0 19.09
-19.09 1845.0 19.09
-19.8 1846.0 19.8
-20.51 1847.0 20.51
-19.8 1848.0 19.8
-20.51 1849.0 20.51
-20.51 1850.0 20.51
-19.09 1851.0 19.09
-21.92 1852.0 21.92
-21.92 1853.0 21.92
-21.92 1854.0 21.92
-21.92 1855.0 21.92
-21.92 1856.0 21.92
-21.92 1857.0 21.92
-21.92 1858.0 21.92
-21.92 1859.0 21.92
-20.51 1860.0 20.51
-20.51 1861.0 20.51
-20.51 1862.0 20.51
-24.75 1863.0 24.75
-26.16 1864.0 26.16
-26.16 1865.0 26.16
-21.92 1866.0 21.92
-23.33 1867.0 23.33
-20.51 1868.0 20.51
-20.51 1869.0 20.51
-21.21 1870.0 21.21
-21.92 1871.0 21.92
-21.92 1872.0 21.92
-21.92 1873.0 21.92
-21.92 1874.0 21.92
-21.92 1875.0 21.92
-22.63 1876.0 22.63
-24.75 1877.0 24.75
-26.16 1878.0 26.16
-26.16 1879.0 26.16
-26.87 1880.0 26.87
-27.58 1881.0 27.58
-21.92 1882.0 21.92
-24.04 1883.0 24.04
-24.04 1884.0 24.04
-23.33 1885.0 23.33
-24.75 1886.0 24.75
-24.75 1887.0 24.75
-24.75 1888.0 24.75
-24.75 1889.0 24.75
-24.04 1890.0 24.04
-24.75 1891.0 24.75
-24.75 1892.0 24.75
-25.46 1893.0 25.46
-27.58 1894.0 27.58
-27.58 1895.0 27.58
-27.58 1896.0 27.58
-27.58 1897.0 27.58
-27.58 1898.0 27.58
-32.53 1899.0 32.53
-26.16 1900.0 26.16
-26.16 1901.0 26.16
-25.46 1902.0 25.46
-26.87 1903.0 26.87
-27.58 1904.0 27.58
-26.87 1905.0 26.87
-48.79 2116.0 48.79
-48.79 2117.0 48.79
-44.55 2118.0 44.55
-43.13 2119.0 43.13
-43.13 2120.0 43.13
-43.13 2121.0 43.13
-43.13 2122.0 43.13
-44.55 2123.0 44.55
-44.55 2124.0 44.55
-44.55 2125.0 44.55
-46.67 2126.0 46.67
-46.67 2127.0 46.67
-46.67 2128.0 46.67
-47.38 2129.0 47.38
-47.38 2130.0 47.38
-47.38 2131.0 47.38
-47.38 2132.0 47.38
-47.38 2133.0 47.38
-48.08 2134.0 48.08
-48.79 2135.0 48.79
-48.79 2136.0 48.79
-48.79 2137.0 48.79
-49.5 2138.0 49.5
-248.19 2385.0 248.19
-249.61 2387.0 249.61
-249.61 2388.0 249.61
-249.61 2389.0 249.61
9.95 1668.0 -24.02
9.95 1669.0 -24.02
10.33 1670.0 -24.94
-4.97 1733.0 12.01
-4.97 1734.0 12.01
-4.97 1735.0 12.01
-5.36 1736.0 12.93
-6.51 1737.0 15.71
-6.51 1738.0 15.71
-6.51 1739.0 15.71
-10.33 1747.0 24.94
-10.33 1748.0 24.94
-10.33 1749.0 24.94
-7.27 1750.0 17.55
-7.27 1751.0 17.55
-7.27 1752.0 17.55
-8.04 1753.0 19.4
-8.04 1754.0 19.4
-8.42 1755.0 20.33
-8.8 1756.0 21.25
-8.8 1757.0 21.25
-8.8 1758.0 21.25
-8.8 1759.0 21.25
-8.8 1760.0 21.25
-8.8 1761.0 21.25
-9.18 1762.0 22.17
-9.57 1763.0 23.1
-9.95 1764.0 24.02
-9.95 1765.0 24.02
-9.95 1766.0 24.02
-7.65 1767.0 18.48
-8.42 1768.0 20.33
-8.8 1769.0 21.25
-8.8 1770.0 21.25
-9.18 1771.0 22.17
-10.33 1772.0 24.94
-10.33 1773.0 24.94
-10.33 1774.0 24.94
-10.33 1775.0 24.94
-10.33 1776.0 24.94
-9.95 1777.0 24.02
-10.33 1778.0 24.94
-10.72 1779.0 25.87
-10.72 1780.0 25.87
-10.33 1781.0 24.94
-10.33 1782.0 24.94
-10.33 1783.0 24.94
-10.33 1784.0 24.94
-11.86 1785.0 28.64
-10.33 1786.0 24.94
-10.33 1787.0 24.94
-9.95 1788.0 24.02
-9.95 1789.0 24.02
-10.33 1790.0 24.94
-10.33 1791.0 24.94
-11.1 1792.0 26.79
-11.1 1793.0 26.79
-11.1 1794.0 26.79
-11.1 1795.0 26.79
-11.1 1796.0 26.79
-11.1 1797.0 26.79
-11.1 1798.0 26.79
-12.63 1799.0 30.49
-12.63 1800.0 30.49
-12.63 1801.0 30.49
-13.01 1802.0 31.41
-12.63 1803.0 30.49
-13.01 1804.0 31.41
-13.39 1805.0 32.34
-11.48 1806.0 27.72
-11.86 1807.0 28.64
-13.01 1808.0 31.41
-12.63 1809.0 30.49
-12.63 1810.0 30.49
-12.63 1811.0 30.49
-12.63 1812.0 30.49
-13.39 1813.0 32.34
-12.63 1814.0 30.49
-12.63 1815.0 30.49
-12.63 1816.0 30.49
-12.63 1817.0 30.49
-14.16 1818.0 34.18
-13.78 1819.0 33.26
-13.78 1820.0 33.26
-14.16 1821.0 34.18
-14.54 1822.0 35.11
-14.54 1823.0 35.11
-14.54 1824.0 35.11
-11.86 1825.0 28.64
-13.01 1826.0 31.41
-13.01 1827.0 31.41
-13.39 1828.0 32.34
-13.39 1829.0 32.34
-13.39 1830.0 32.34
-14.92 1831.0 36.03
-14.54 1832.0 35.11
-14.16 1833.0 34.18
-14.16 1834.0 34.18
-13.78 1835.0 33.26
-14.16 1836.0 34.18
-14.16 1837.0 34.18
-14.54 1838.0 35.11
-14.92 1839.0 36.03
-14.92 1840.0 36.03
-14.54 1841.0 35.11
-14.16 1842.0 34.18
-12.63 1843.0 30.49
-14.54 1844.0 35.11
-14.16 1845.0 34.18
-14.16 1846.0 34.18
-14.16 1847.0 34.18
-14.16 1848.0 34.18
-14.92 1849.0 36.03
-14.92 1850.0 36.03
-14.92 1851.0 36.03
-14.92 1852.0 36.03
-14.16 1853.0 34.18
-14.16 1854.0 34.18
-14.16 1855.0 34.18
-15.69 1856.0 37.88
-15.69 1857.0 37.88
-15.69 1858.0 37.88
-15.69 1859.0 37.88
-15.69 1860.0 37.88
-16.07 1861.0 38.8
-16.46 1862.0 39.73
-15.31 1863.0 36.96
-14.92 1864.0 36.03
-14.92 1865.0 36.03
-14.92 1866.0 36.03
-15.69 1867.0 37.88
-15.69 1868.0 37.88
-15.69 1869.0 37.88
-15.69 1870.0 37.88
-15.69 1871.0 37.88
-15.69 1872.0 37.88
-15.69 1873.0 37.88
-15.69 1874.0 37.88
-15.69 1875.0 37.88
-15.69 1876.0 37.88
-15.69 1877.0 37.88
-15.69 1878.0 37.88
-15.69 1879.0 37.88
-17.22 1880.0 41.57
-18.75 1881.0 45.27
-15.69 1882.0 37.88
-15.69 1883.0 37.88
-15.69 1884.0 37.88
-15.69 1885.0 37.88
-15.69 1886.0 37.88
-15.69 1887.0 37.88
-15.69 1888.0 37.88
-15.69 1889.0 37.88
-15.69 1890.0 37.88
-15.69 1891.0 37.88
-17.22 1892.0 41.57
-15.69 1893.0 37.88
-17.22 1894.0 41.57
-16.07 1895.0 38.8
-17.22 1896.0 41.57
-17.22 1897.0 41.57
-17.22 1898.0 41.57
-19.52 1899.0 47.12
-19.52 1900.0 47.12
-15.69 1901.0 37.88
-15.69 1902.0 37.88
-15.69 1903.0 37.88
-15.69 1904.0 37.88
-17.22 1905.0 41.57
-17.22 1906.0 41.57
-11.86 1938.0 28.64
-12.63 1939.0 30.49
-11.86 1940.0 28.64
-11.1 1941.0 26.79
-13.01 1942.0 31.41
-13.01 1943.0 31.41
-12.63 1944.0 30.49
-12.63 1945.0 30.49
-13.39 1960.0 32.34
-13.39 1961.0 32.34
-14.54 1962.0 35.11
-14.54 1963.0 35.11
-14.16 1964.0 34.18
-13.78 1965.0 33.26
-14.16 1978.0 34.18
-14.16 1979.0 34.18
-14.16 1980.0 34.18
-14.92 1981.0 36.03
-14.16 1982.0 34.18
-14.16 1983.0 34.18
-14.92 1997.0 36.03
-13.39 1998.0 32.34
-13.39 1999.0 32.34
-13.78 2000.0 33.26
-14.92 2001.0 36.03
-15.69 2002.0 37.88
-15.69 2003.0 37.88
-15.69 2015.0 37.88
-15.69 2016.0 37.88
-14.92 2017.0 36.03
-15.31 2018.0 36.96
-16.46 2019.0 39.73
-16.84 2020.0 40.65
-15.69 2033.0 37.88
-15.69 2034.0 37.88
-15.69 2035.0 37.88
-15.69 2036.0 37.88
-17.22 2037.0 41.57
-16.84 2038.0 40.65
-16.46 2039.0 39.73
-16.46 2040.0 39.73
-16.84 2053.0 40.65
-15.69 2054.0 37.88
-15.69 2055.0 37.88
-15.69 2056.0 37.88
-16.46 2057.0 39.73
-16.84 2058.0 40.65
-16.46 2070.0 39.73
-16.46 2071.0 39.73
-16.46 2072.0 39.73
-17.99 2073.0 43.42
-16.46 2074.0 39.73
-16.46 2075.0 39.73
-17.22 2076.0 41.57
-17.99 2077.0 43.42
-17.99 2078.0 43.42
-16.46 2089.0 39.73
-16.46 2090.0 39.73
-17.6 2091.0 42.5
-17.99 2092.0 43.42
-17.99 2093.0 43.42
-17.99 2094.0 43.42
-18.75 2095.0 45.27
-18.75 2096.0 45.27
-18.75 2097.0 45.27
-18.75 2098.0 45.27
-19.13 2099.0 46.19
-16.46 2107.0 39.73
-18.75 2108.0 45.27
-19.52 2109.0 47.12
-18.75 2110.0 45.27
-18.75 2111.0 45.27
-17.99 2112.0 43.42
-19.52 2113.0 47.12
-17.6 2114.0 42.5
-17.6 2115.0 42.5
-24.49 2116.0 59.13
-23.34 2117.0 56.36
-24.11 2118.0 58.2
-24.49 2119.0 59.13
-24.11 2120.0 58.2
-24.11 2121.0 58.2
-25.64 2122.0 61.9
-20.28 2123.0 48.97
-20.28 2124.0 48.97
-21.43 2125.0 51.74
-21.81 2126.0 52.66
-22.96 2127.0 55.43
-22.58 2128.0 54.51
-22.58 2129.0 54.51
-22.58 2130.0 54.51
-17.22 2218.0 41.57
-17.22 2219.0 41.57
-17.22 2220.0 41.57
-17.22 2221.0 41.57
-17.22 2222.0 41.57
-17.6 2223.0 42.5
-17.6 2224.0 42.5
-17.22 2225.0 41.57
-17.6 2226.0 42.5
-17.99 2227.0 43.42
-17.22 2228.0 41.57
-16.84 2229.0 40.65
-17.22 2230.0 41.57
-17.22 2231.0 41.57
-17.22 2232.0 41.57
-17.99 2233.0 43.42
-17.6 2234.0 42.5
-17.99 2235.0 43.42
-17.99 2236.0 43.42
-17.99 2237.0 43.42
-18.75 2238.0 45.27
-18.75 2239.0 45.27
-16.46 2240.0 39.73
-16.46 2241.0 39.73
-17.99 2242.0 43.42
-17.22 2243.0 41.57
-17.99 2244.0 43.42
-18.75 2245.0 45.27
-18.37 2246.0 44.35
-18.75 2247.0 45.27
-18.37 2248.0 44.35
-18.75 2249.0 45.27
-17.99 2250.0 43.42
-17.99 2251.0 43.42
-17.99 2252.0 43.42
-18.37 2253.0 44.35
-17.6 2254.0 42.5
-17.22 2255.0 41.57
-17.22 2256.0 41.57
-15.31 2257.0 36.96
-15.69 2258.0 37.88
-15.69 2259.0 37.88
-17.22 2260.0 41.57
-17.22 2261.0 41.57
-17.22 2262.0 41.57
-17.99 2263.0 43.42
-17.99 2264.0 43.42
-17.22 2265.0 41.57
-17.99 2266.0 43.42
-18.37 2267.0 44.35
-19.13 2268.0 46.19
-19.13 2269.0 46.19
-22.58 2270.0 54.51
-17.22 2271.0 41.57
-17.22 2272.0 41.57
-24.11 2273.0 58.2
-23.73 2274.0 57.28
-23.34 2275.0 56.36
-19.9 2276.0 48.04
-21.05 2277.0 50.81
-21.05 2278.0 50.81
-21.05 2279.0 50.81
-17.6 2280.0 42.5
-17.22 2281.0 41.57
-18.37 2282.0 44.35
-19.13 2283.0 46.19
-16.84 2284.0 40.65
-17.22 2285.0 41.57
-17.22 2286.0 41.57
-17.22 2287.0 41.57
-21.81 2288.0 52.66
-21.81 2289.0 52.66
-16.46 2290.0 39.73
-16.46 2291.0 39.73
-16.46 2292.0 39.73
-16.46 2293.0 39.73
-16.84 2294.0 40.65
-16.84 2295.0 40.65
-16.84 2296.0 40.65
-17.22 2297.0 41.57
-17.22 2298.0 41.57
-17.22 2299.0 41.57
-18.75 2300.0 45.27
-18.75 2301.0 45.27
-18.75 2302.0 45.27
-18.75 2303.0 45.27
-17.22 2304.0 41.57
-17.99 2305.0 43.42
-17.99 2306.0 43.42
-17.99 2307.0 43.42
-16.07 2308.0 38.8
-16.07 2309.0 38.8
-17.22 2310.0 41.57
-17.22 2311.0 41.57
-17.22 2312.0 41.57
-17.22 2313.0 41.57
-16.84 2314.0 40.65
-16.46 2315.0 39.73
-28.32 2320.0 68.37
-29.47 2321.0 71.14
-28.7 2322.0 69.29
-28.7 2323.0 69.29
-29.08 2324.0 70.21
-34.06 2343.0 82.23
-34.06 2344.0 82.23
-34.06 2345.0 82.23
-34.06 2346.0 82.23
-0.0 1643.0 5.0
-0.0 1644.0 5.0
-0.0 1645.0 5.0
-0.0 1646.0 5.0
-0.0 1647.0 4.0
-0.0 1648.0 4.0
-0.0 1649.0 2.0
0.0 1650.0 -1.0
0.0 1651.0 -1.0
0.0 1652.0 -7.0
0.0 1653.0 -8.0
0.0 1654.0 -9.0
0.0 1655.0 -9.0
0.0 1656.0 -11.0
0.0 1657.0 -12.0
0.0 1658.0 -13.0
0.0 1670.0 -17.0
0.0 1671.0 -17.0
0.0 1672.0 -17.0
0.0 1673.0 -17.0
0.0 1674.0 -17.0
0.0 1675.0 -17.0
0.0 1676.0 -17.0
0.0 1677.0 -17.0
0.0 1678.0 -17.0
0.0 1679.0 -17.0
0.0 1680.0 -17.0
0.0 1681.0 -19.0
0.0 1682.0 -16.0
0.0 1713.0 -16.0
0.0 1714.0 -16.0
0.0 1715.0 -14.0
0.0 1716.0 -13.0
0.0 1717.0 -12.0
0.0 1718.0 -11.0
0.0 1719.0 -10.0
0.0 1729.0 -7.0
0.0 1730.0 -7.0
0.0 1731.0 -9.0
0.0 1732.0 -9.0
0.0 1733.0 -5.0
0.0 1734.0 -3.0
0.0 1735.0 -1.0
0.0 1736.0 -1.0
0.0 1737.0 -1.0
0.0 1738.0 -1.0
0.0 1739.0 -1.0
-0.0 1742.0 3.0
-0.0 1743.0 3.0
-0.0 1744.0 3.0
-0.0 1745.0 5.0
-0.0 1746.0 5.0
0.0 1747.0 -1.0
-0.0 1748.0 0.0
-0.0 1749.0 1.0
-0.0 1750.0 1.0
-0.0 1751.0 7.0
-0.0 1752.0 3.0
-0.0 1753.0 6.0
-0.0 1754.0 6.0
-0.0 1755.0 5.0
-0.0 1756.0 7.0
-0.0 1757.0 7.0
-0.0 1758.0 7.0
-0.0 1759.0 7.0
-0.0 1760.0 7.0
-0.0 1761.0 7.0
-0.0 1762.0 7.0
-0.0 1763.0 10.0
-0.0 1764.0 10.0
-0.0 1765.0 9.0
-0.0 1766.0 9.0
-0.0 1767.0 3.0
-0.0 1768.0 5.0
-0.0 1769.0 5.0
-0.0 1770.0 7.0
-0.0 1771.0 7.0
-0.0 1772.0 7.0
-0.0 1773.0 9.0
-0.0 1774.0 9.0
-0.0 1775.0 9.0
-0.0 1776.0 9.0
-0.0 1777.0 11.0
-0.0 1778.0 11.0
-0.0 1779.0 11.0
-0.0 1780.0 11.0
-0.0 1781.0 11.0
-0.0 1782.0 11.0
-0.0 1783.0 15.0
-0.0 1784.0 11.0
-0.0 1785.0 9.0
-0.0 1786.0 21.0
-0.0 1787.0 12.0
-0.0 1788.0 11.0
-0.0 1789.0 11.0
-0.0 1790.0 11.0
-0.0 1791.0 11.0
-0.0 1792.0 14.0
-0.0 1793.0 12.0
-0.0 1794.0 13.0
-0.0 1795.0 13.0
-0.0 1796.0 14.0
-0.0 1797.0 13.0
-0.0 1798.0 19.0
-0.0 1799.0 19.0
-0.0 1800.0 18.0
-0.0 1801.0 18.0
-0.0 1802.0 18.0
-0.0 1803.0 19.0
-0.0 1804.0 15.0
-0.0 1805.0 13.0
-0.0 1806.0 17.0
-0.0 1807.0 17.0
-0.0 1808.0 16.0
-0.0 1809.0 16.0
-0.0 1810.0 15.0
-0.0 1811.0 15.0
-0.0 1812.0 15.0
-0.0 1813.0 19.0
-0.0 1814.0 19.0
-0.0 1815.0 19.0
-0.0 1816.0 19.0
-0.0 1817.0 19.0
-0.0 1818.0 21.0
-0.0 1819.0 21.0
-0.0 1820.0 21.0
-0.0 1821.0 20.0
-0.0 1822.0 20.0
-0.0 1823.0 15.0
-0.0 1824.0 15.0
-0.0 1825.0 17.0
-0.0 1826.0 19.0
-0.0 1827.0 19.0
-0.0 1828.0 20.0
-0.0 1829.0 21.0
-0.0 1830.0 21.0
-0.0 1831.0 21.0
-0.0 1832.0 21.0
-0.0 1833.0 21.0
-0.0 1834.0 21.0
-0.0 1835.0 19.0
-0.0 1836.0 20.0
-0.0 1837.0 24.0
-0.0 1838.0 24.0
-0.0 1839.0 24.0
-0.0 1840.0 23.0
-0.0 1841.0 25.0
-0.0 1842.0 17.0
-0.0 1843.0 17.0
-0.0 1844.0 20.0
-0.0 1845.0 19.0
-0.0 1846.0 19.0
-0.0 1847.0 23.0
-0.0 1848.0 21.0
-0.0 1849.0 21.0
-0.0 1850.0 21.0
-0.0 1851.0 21.0
-0.0 1852.0 21.0
-0.0 1853.0 21.0
-0.0 1854.0 23.0
-0.0 1855.0 24.0
-0.0 1856.0 24.0
-0.0 1857.0 25.0
-0.0 1858.0 25.0
-0.0 1859.0 25.0
-0.0 1860.0 29.0
-0.0 1861.0 21.0
-0.0 1862.0 20.0
-0.0 1863.0 21.0
-0.0 1864.0 21.0
-0.0 1865.0 24.0
-0.0 1866.0 24.0
-0.0 1867.0 21.0
-0.0 1868.0 24.0
-0.0 1869.0 23.0
-0.0 1870.0 23.0
-0.0 1871.0 23.0
-0.0 1872.0 23.0
-0.0 1873.0 26.0
-0.0 1874.0 39.0
-0.0 1875.0 27.0
-0.0 1876.0 27.0
-0.0 1877.0 39.0
-0.0 1878.0 39.0
-0.0 1879.0 33.0
-0.0 1880.0 33.0
-0.0 1881.0 38.0
-0.0 1882.0 23.0
-0.0 1883.0 23.0
-0.0 1884.0 23.0
-0.0 1885.0 23.0
-0.0 1886.0 23.0
-0.0 1887.0 23.0
-0.0 1888.0 25.0
-0.0 1889.0 37.0
-0.0 1890.0 37.0
-0.0 1891.0 37.0
-0.0 1892.0 29.0
-0.0 1893.0 34.0
-0.0 1894.0 35.0
-0.0 1895.0 35.0
-0.0 1896.0 29.0
-0.0 1897.0 29.0
-0.0 1898.0 29.0
-0.0 1899.0 40.0
-0.0 1900.0 32.0
-0.0 1901.0 25.0
-0.0 1902.0 25.0
-0.0 1903.0 25.0
-0.0 1904.0 25.0
-0.0 1905.0 27.0
-0.0 1906.0 27.0
-0.0 1907.0 27.0
-0.0 1908.0 28.0
-0.0 1909.0 27.0
-0.0 1910.0 40.0
-0.0 1911.0 39.0
-0.0 1912.0 41.0
-0.0 1913.0 41.0
-0.0 2135.0 54.0
-0.0 2136.0 54.0
-0.0 2203.0 27.0
-0.0 2223.0 31.0
-0.0 2224.0 31.0
-0.0 2225.0 31.0
-0.0 2243.0 31.0
-0.0 2343.0 77.0
7.65 1636.0 18.48
7.27 1637.0 17.55
7.65 1638.0 18.48
7.65 1639.0 18.48
7.65 1640.0 18.48
8.04 1641.0 19.4
8.04 1642.0 19.4
8.42 1643.0 20.33
8.42 1644.0 20.33
8.42 1645.0 20.33
8.04 1646.0 19.4
6.51 1647.0 15.71
5.74 1648.0 13.86
2.68 1649.0 6.47
2.68 1650.0 6.47
1.15 1651.0 2.77
1.15 1652.0 2.77
0.38 1653.0 0.92
15.69 1680.0 37.88
15.69 1681.0 37.88
-4.21 1682.0 -10.16
-4.21 1683.0 -10.16
-3.83 1684.0 -9.24
-3.44 1685.0 -8.31
-4.21 1686.0 -10.16
-3.83 1687.0 -9.24
-4.21 1688.0 -10.16
-4.21 1689.0 -10.16
-4.21 1690.0 -10.16
-4.59 1691.0 -11.09
-4.97 1692.0 -12.01
-4.97 1693.0 -12.01
-4.97 1694.0 -12.01
-3.44 1712.0 -8.31
-3.44 1713.0 -8.31
-3.44 1714.0 -8.31
-3.44 1715.0 -8.31
-3.44 1716.0 -8.31
-3.44 1717.0 -8.31
-3.44 1718.0 -8.31
-3.44 1719.0 -8.31
-3.44 1720.0 -8.31
-3.44 1721.0 -8.31
-3.44 1722.0 -8.31
-3.44 1723.0 -8.31
-3.44 1724.0 -8.31
-5.74 1727.0 -13.86
-1.91 1730.0 -4.62
-1.91 1731.0 -4.62
-1.91 1732.0 -4.62
-1.91 1733.0 -4.62
-1.91 1734.0 -4.62
-0.77 1735.0 -1.85
0.38 1739.0 0.92
0.38 1740.0 0.92
5.74 1745.0 13.86
5.74 1746.0 13.86
-0.77 1747.0 -1.85
-0.38 1748.0 -0.92
-0.38 1749.0 -0.92
0.38 1750.0 0.92
0.38 1751.0 0.92
2.68 1752.0 6.47
2.68 1753.0 6.47
1.15 1754.0 2.77
1.15 1755.0 2.77
5.74 1761.0 13.86
11.86 1765.0 28.64
11.86 1766.0 28.64
2.68 1767.0 6.47
2.3 1768.0 5.54
1.91 1769.0 4.62
1.91 1770.0 4.62
3.44 1771.0 8.31
4.21 1772.0 10.16
4.21 1773.0 10.16
4.21 1774.0 10.16
10.33 1775.0 24.94
10.72 1776.0 25.87
6.51 1778.0 15.71
6.51 1779.0 15.71
6.51 1780.0 15.71
6.51 1781.0 15.71
8.8 1782.0 21.25
8.8 1783.0 21.25
8.8 1784.0 21.25
4.21 1785.0 10.16
4.97 1786.0 12.01
4.97 1787.0 12.01
5.36 1788.0 12.93
5.74 1789.0 13.86
6.51 1790.0 15.71
6.51 1791.0 15.71
6.12 1792.0 14.78
4.97 1793.0 12.01
7.27 1794.0 17.55
7.27 1795.0 17.55
7.27 1796.0 17.55
6.51 1797.0 15.71
6.89 1798.0 16.63
6.51 1799.0 15.71
7.27 1800.0 17.55
7.27 1801.0 17.55
5.74 1802.0 13.86
5.74 1803.0 13.86
6.51 1804.0 15.71
6.51 1805.0 15.71
6.51 1806.0 15.71
6.51 1807.0 15.71
6.51 1808.0 15.71
7.27 1809.0 17.55
7.27 1810.0 17.55
7.27 1811.0 17.55
7.27 1812.0 17.55
7.27 1813.0 17.55
7.27 1814.0 17.55
7.27 1815.0 17.55
6.89 1816.0 16.63
6.51 1817.0 15.71
6.51 1818.0 15.71
7.27 1819.0 17.55
7.27 1820.0 17.55
6.12 1821.0 14.78
6.12 1822.0 14.78
6.51 1823.0 15.71
6.51 1824.0 15.71
6.51 1825.0 15.71
6.51 1826.0 15.71
7.27 1827.0 17.55
7.27 1828.0 17.55
6.51 1829.0 15.71
7.27 1830.0 17.55
7.65 1831.0 18.48
7.27 1832.0 17.55
8.04 1833.0 19.4
8.04 1834.0 19.4
7.65 1835.0 18.48
8.04 1836.0 19.4
8.42 1837.0 20.33
8.8 1838.0 21.25
8.8 1839.0 21.25
8.8 1840.0 21.25
7.27 1841.0 17.55
8.42 1842.0 20.33
8.8 1843.0 21.25
9.57 1844.0 23.1
9.57 1845.0 23.1
9.57 1846.0 23.1
8.8 1847.0 21.25
9.57 1848.0 23.1
9.57 1849.0 23.1
10.33 1850.0 24.94
10.33 1851.0 24.94
10.33 1852.0 24.94
10.33 1853.0 24.94
10.33 1854.0 24.94
11.48 1855.0 27.72
11.1 1856.0 26.79
11.1 1857.0 26.79
11.86 1858.0 28.64
10.33 1859.0 24.94
13.39 1860.0 32.34
13.39 1861.0 32.34
13.39 1862.0 32.34
13.39 1863.0 32.34
10.72 1864.0 25.87
10.72 1865.0 25.87
11.1 1866.0 26.79
11.1 1867.0 26.79
11.1 1868.0 26.79
9.57 1869.0 23.1
14.92 1870.0 36.03
14.54 1871.0 35.11
14.54 1872.0 35.11
17.22 1873.0 41.57
11.86 1874.0 28.64
11.86 1875.0 28.64
11.86 1876.0 28.64
9.57 1877.0 23.1
8.8 1878.0 21.25
8.8 1879.0 21.25
8.42 1880.0 20.33
11.86 1881.0 28.64
11.86 1882.0 28.64
10.33 1883.0 24.94
11.48 1884.0 27.72
11.86 1885.0 28.64
11.86 1886.0 28.64
10.33 1887.0 24.94
9.95 1888.0 24.02
11.1 1889.0 26.79
11.1 1890.0 26.79
11.86 1891.0 28.64
11.86 1892.0 28.64
11.86 1893.0 28.64
12.63 1894.0 30.49
14.92 1895.0 36.03
14.92 1896.0 36.03
13.78 1897.0 33.26
14.54 1898.0 35.11
14.16 1899.0 34.18
9.57 1900.0 23.1
9.57 1901.0 23.1
11.48 1902.0 27.72
11.86 1903.0 28.64
11.86 1904.0 28.64
11.86 1905.0 28.64
11.86 1906.0 28.64
11.86 1907.0 28.64
16.84 1908.0 40.65
17.22 1909.0 41.57
17.22 1910.0 41.57
17.99 1911.0 43.42
17.99 1912.0 43.42
12.63 1913.0 30.49
12.63 1914.0 30.49
20.28 1915.0 48.97
18.75 1916.0 45.27
18.37 1917.0 44.35
16.46 1918.0 39.73
18.75 1919.0 45.27
15.69 1920.0 37.88
15.69 1921.0 37.88
19.52 1922.0 47.12
16.46 1923.0 39.73
18.75 1924.0 45.27
17.99 1925.0 43.42
18.75 1926.0 45.27
19.13 1927.0 46.19
19.13 1928.0 46.19
19.52 1929.0 47.12
19.52 1930.0 47.12
20.28 1931.0 48.97
20.28 1932.0 48.97
20.28 1933.0 48.97
21.05 1935.0 50.81
21.05 1936.0 50.81
8.04 1956.0 19.4
8.04 1957.0 19.4
8.04 1958.0 19.4
7.27 1959.0 17.55
25.26 2065.0 60.98
24.87 2066.0 60.05
24.87 2067.0 60.05
24.87 2070.0 60.05
24.11 2071.0 58.2
24.11 2072.0 58.2
24.11 2073.0 58.2
24.11 2074.0 58.2
24.11 2075.0 58.2
24.11 2076.0 58.2
23.73 2079.0 57.28
23.73 2080.0 57.28
23.73 2081.0 57.28
23.73 2082.0 57.28
23.73 2083.0 57.28
23.73 2084.0 57.28
23.34 2085.0 56.36
23.34 2086.0 56.36
13.39 2126.0 32.34
13.39 2127.0 32.34
13.39 2128.0 32.34
13.39 2129.0 32.34
13.39 2130.0 32.34
13.39 2131.0 32.34
13.39 2132.0 32.34
13.39 2133.0 32.34
13.39 2134.0 32.34
13.78 2135.0 33.26
18.75 2260.0 45.27
18.75 2261.0 45.27
18.75 2262.0 45.27
18.75 2263.0 45.27
139.68 2403.0 337.22
137.38 2405.0 331.67
135.85 2406.0 327.98
135.85 2407.0 327.98
136.24 2408.0 328.9
16.26 1635.0 16.26
16.26 1636.0 16.26
15.56 1637.0 15.56
14.85 1638.0 14.85
15.56 1639.0 15.56
16.26 1640.0 16.26
16.26 1641.0 16.26
15.56 1642.0 15.56
12.73 1643.0 12.73
9.19 1644.0 9.19
7.78 1645.0 7.78
7.07 1646.0 7.07
40.31 1687.0 40.31
3.54 1688.0 3.54
4.24 1689.0 4.24
4.95 1690.0 4.95
4.95 1691.0 4.95
3.54 1692.0 3.54
3.54 1693.0 3.54
3.54 1694.0 3.54
2.83 1695.0 2.83
3.54 1696.0 3.54
-7.78 1713.0 -7.78
-7.78 1714.0 -7.78
-6.36 1715.0 -6.36
-7.78 1716.0 -7.78
-7.78 1717.0 -7.78
-6.36 1718.0 -6.36
-6.36 1719.0 -6.36
-6.36 1720.0 -6.36
6.36 1737.0 6.36
19.09 1741.0 19.09
19.09 1742.0 19.09
20.51 1745.0 20.51
21.92 1746.0 21.92
21.92 1747.0 21.92
19.8 1748.0 19.8
19.09 1749.0 19.09
18.38 1750.0 18.38
10.61 1751.0 10.61
10.61 1752.0 10.61
7.78 1753.0 7.78
9.9 1754.0 9.9
9.9 1755.0 9.9
11.31 1756.0 11.31
12.02 1757.0 12.02
10.61 1758.0 10.61
9.9 1759.0 9.9
10.61 1760.0 10.61
12.02 1761.0 12.02
7.78 1762.0 7.78
7.78 1763.0 7.78
7.78 1764.0 7.78
7.78 1765.0 7.78
7.78 1766.0 7.78
7.78 1767.0 7.78
17.68 1768.0 17.68
17.68 1769.0 17.68
16.97 1770.0 16.97
16.97 1771.0 16.97
10.61 1783.0 10.61
10.61 1790.0 10.61
10.61 1791.0 10.61
10.61 1792.0 10.61
28.99 1883.0 28.99
27.58 1884.0 27.58
30.41 1885.0 30.41
30.41 1886.0 30.41
30.41 1887.0 30.41
29.7 1888.0 29.7
30.41 1889.0 30.41
30.41 1890.0 30.41
30.41 1891.0 30.41
30.41 1892.0 30.41
37.48 1893.0 37.48
38.89 1894.0 38.89
40.31 1895.0 40.31
41.01 1896.0 41.01
31.11 1897.0 31.11
31.11 1898.0 31.11
33.23 1899.0 33.23
33.23 1900.0 33.23
34.65 1901.0 34.65
34.65 1902.0 34.65
34.65 1903.0 34.65
27.58 1904.0 27.58
27.58 1905.0 27.58
28.99 1906.0 28.99
28.99 1907.0 28.99
28.99 1908.0 28.99
29.7 1909.0 29.7
29.7 1910.0 29.7
26.16 1911.0 26.16
38.89 1912.0 38.89
38.89 1913.0 38.89
28.28 1914.0 28.28
28.28 1915.0 28.28
27.58 1916.0 27.58
25.46 1917.0 25.46
26.16 1918.0 26.16
27.58 1919.0 27.58
26.16 1920.0 26.16
26.16 1921.0 26.16
26.16 1922.0 26.16
26.16 1923.0 26.16
26.87 1924.0 26.87
28.28 1925.0 28.28
36.77 1926.0 36.77
37.48 1927.0 37.48
34.65 1928.0 34.65
34.65 1929.0 34.65
35.36 1930.0 35.36
39.6 1931.0 39.6
40.31 1932.0 40.31
38.89 1933.0 38.89
41.01 1934.0 41.01
39.6 1935.0 39.6
40.31 1936.0 40.31
38.89 1937.0 38.89
39.6 1938.0 39.6
36.06 1939.0 36.06
27.58 1940.0 27.58
27.58 1941.0 27.58
27.58 1942.0 27.58
27.58 1943.0 27.58
27.58 1944.0 27.58
30.41 1945.0 30.41
28.99 1946.0 28.99
31.82 1947.0 31.82
28.28 1948.0 28.28
28.99 1949.0 28.99
28.99 1950.0 28.99
28.28 1951.0 28.28
28.28 1952.0 28.28
28.99 1953.0 28.99
31.82 1954.0 31.82
36.77 1955.0 36.77
38.18 1956.0 38.18
40.31 1957.0 40.31
26.16 1958.0 26.16
26.16 1959.0 26.16
28.99 1960.0 28.99
28.28 1961.0 28.28
28.99 1962.0 28.99
30.41 1963.0 30.41
30.41 1964.0 30.41
30.41 1965.0 30.41
33.94 1966.0 33.94
33.94 1967.0 33.94
33.23 1968.0 33.23
33.23 1969.0 33.23
31.11 1970.0 31.11
33.23 1971.0 33.23
33.23 1972.0 33.23
31.82 1973.0 31.82
33.23 1974.0 33.23
27.58 1975.0 27.58
30.41 1976.0 30.41
31.11 1977.0 31.11
29.7 1978.0 29.7
30.41 1979.0 30.41
30.41 1980.0 30.41
30.41 1981.0 30.41
31.82 1982.0 31.82
31.82 1983.0 31.82
31.82 1984.0 31.82
30.41 1985.0 30.41
30.41 1986.0 30.41
30.41 1987.0 30.41
31.82 1988.0 31.82
41.72 1989.0 41.72
31.82 1990.0 31.82
34.65 1991.0 34.65
33.94 1992.0 33.94
34.65 1993.0 34.65
33.23 1994.0 33.23
31.82 1995.0 31.82
32.53 1996.0 32.53
33.94 1997.0 33.94
33.94 1998.0 33.94
33.23 1999.0 33.23
33.23 2000.0 33.23
34.65 2001.0 34.65
34.65 2002.0 34.65
34.65 2003.0 34.65
36.06 2004.0 36.06
40.31 2005.0 40.31
39.6 2006.0 39.6
44.55 2007.0 44.55
45.25 2008.0 45.25
45.96 2009.0 45.96
46.67 2010.0 46.67
27.58 2013.0 27.58
27.58 2014.0 27.58
28.99 2015.0 28.99
29.7 2016.0 29.7
30.41 2017.0 30.41
45.96 2021.0 45.96
30.41 2025.0 30.41
30.41 2026.0 30.41
45.96 2027.0 45.96
45.96 2028.0 45.96
30.41 2029.0 30.41
38.89 2033.0 38.89
38.18 2034.0 38.18
31.11 2035.0 31.11
31.11 2036.0 31.11
31.11 2037.0 31.11
38.18 2038.0 38.18
37.48 2039.0 37.48
38.18 2040.0 38.18
37.48 2041.0 37.48
37.48 2042.0 37.48
36.06 2046.0 36.06
36.06 2047.0 36.06
36.06 2048.0 36.06
36.06 2049.0 36.06
36.06 2050.0 36.06
36.06 2051.0 36.06
35.36 2052.0 35.36
35.36 2053.0 35.36
34.65 2054.0 34.65
34.65 2055.0 34.65
33.94 2056.0 33.94
33.23 2057.0 33.23
33.23 2058.0 33.23
33.23 2059.0 33.23
33.23 2060.0 33.23
33.23 2061.0 33.23
33.23 2062.0 33.23
33.23 2063.0 33.23
33.23 2064.0 33.23
33.23 2075.0 33.23
31.11 2076.0 31.11
30.41 2077.0 30.41
31.11 2078.0 31.11
31.82 2079.0 31.82
31.82 2080.0 31.82
29.7 2088.0 29.7
29.7 2089.0 29.7
30.41 2090.0 30.41
30.41 2091.0 30.41
30.41 2092.0 30.41
30.41 2093.0 30.41
31.11 2094.0 31.11
30.41 2095.0 30.41
31.11 2096.0 31.11
30.41 2097.0 30.41
30.41 2098.0 30.41
30.41 2099.0 30.41
262.34 2375.0 262.34
262.34 2376.0 262.34
262.34 2377.0 262.34
262.34 2378.0 262.34
262.34 2379.0 262.34
262.34 2380.0 262.34
260.22 2381.0 260.22
260.92 2382.0 260.92
260.92 2383.0 260.92
261.63 2384.0 261.63
261.63 2385.0 261.63
258.09 2386.0 258.09
255.27 2387.0 255.27
255.27 2388.0 255.27
256.68 2389.0 256.68
256.68 2390.0 256.68
262.34 2396.0 262.34
262.34 2397.0 262.34
264.46 2398.0 264.46
265.87 2399.0 265.87
266.58 2400.0 266.58
266.58 2401.0 266.58
266.58 2402.0 266.58
267.99 2403.0 267.99
267.99 2404.0 267.99
263.75 2405.0 263.75
264.46 2406.0 264.46
263.75 2407.0 263.75
263.75 2408.0 263.75
263.75 2409.0 263.75
267.29 2410.0 267.29
266.58 2411.0 266.58
267.29 2412.0 267.29
263.04 2413.0 263.04
263.75 2414.0 263.75
263.75 2415.0 263.75
21.25 1626.0 8.8
21.25 1627.0 8.8
23.1 1628.0 9.57
24.02 1629.0 9.95
23.1 1630.0 9.57
23.1 1631.0 9.57
20.33 1632.0 8.42
20.33 1633.0 8.42
19.4 1634.0 8.04
6.47 1635.0 2.68
6.47 1636.0 2.68
69.29 1680.0 28.7
69.29 1681.0 28.7
69.29 1682.0 28.7
15.71 1729.0 6.51
14.78 1730.0 6.12
12.01 1731.0 4.97
12.01 1732.0 4.97
12.01 1733.0 4.97
13.86 1734.0 5.74
13.86 1735.0 5.74
13.86 1736.0 5.74
13.86 1737.0 5.74
14.78 1743.0 6.12
17.55 1751.0 7.27
16.63 1752.0 6.89
15.71 1753.0 6.51
15.71 1754.0 6.51
15.71 1755.0 6.51
13.86 1756.0 5.74
13.86 1757.0 5.74
13.86 1758.0 5.74
28.64 1761.0 11.86
37.88 1768.0 15.69
37.88 1769.0 15.69
37.88 1770.0 15.69
37.88 1771.0 15.69
41.57 1772.0 17.22
41.57 1773.0 17.22
40.65 1774.0 16.84
39.73 1775.0 16.46
40.65 1776.0 16.84
9.24 1786.0 3.83
10.16 1787.0 4.21
10.16 1788.0 4.21
10.16 1789.0 4.21
49.89 1800.0 20.66
48.97 1801.0 20.28
48.97 1802.0 20.28
48.04 1803.0 19.9
47.12 1804.0 19.52
47.12 1805.0 19.52
47.12 1806.0 19.52
47.12 1807.0 19.52
46.19 1808.0 19.13
45.27 1809.0 18.75
45.27 1810.0 18.75
45.27 1811.0 18.75
45.27 1812.0 18.75
45.27 1813.0 18.75
45.27 1814.0 18.75
54.51 1833.0 22.58
54.51 1834.0 22.58
54.51 1835.0 22.58
53.59 1836.0 22.2
54.51 1855.0 22.58
54.51 1856.0 22.58
54.51 1857.0 22.58
48.97 1867.0 20.28
60.05 1881.0 24.87
45.27 1882.0 18.75
45.27 1883.0 18.75
45.27 1884.0 18.75
45.27 1885.0 18.75
45.27 1886.0 18.75
43.42 1887.0 17.99
45.27 1888.0 18.75
44.35 1889.0 18.37
43.42 1890.0 17.99
58.2 1891.0 24.11
46.19 1892.0 19.13
46.19 1893.0 19.13
48.97 1894.0 20.28
49.89 1895.0 20.66
49.89 1896.0 20.66
54.51 1897.0 22.58
54.51 1898.0 22.58
54.51 1899.0 22.58
41.57 1900.0 17.22
41.57 1901.0 17.22
42.5 1902.0 17.6
45.27 1903.0 18.75
45.27 1904.0 18.75
45.27 1905.0 18.75
44.35 1906.0 18.37
41.57 1907.0 17.22
42.5 1908.0 17.6
56.36 1909.0 23.34
41.57 1910.0 17.22
41.57 1911.0 17.22
41.57 1912.0 17.22
46.19 1913.0 19.13
45.27 1914.0 18.75
44.35 1915.0 18.37
41.57 1916.0 17.22
41.57 1917.0 17.22
41.57 1918.0 17.22
37.88 1919.0 15.69
41.57 1920.0 17.22
41.57 1921.0 17.22
41.57 1922.0 17.22
41.57 1923.0 17.22
