25.850000 1598.000000 63.980000 
-106.199997 1994.000000 13.040000 
24.520000 1851.000000 106.209999 
-71.349998 1932.000000 85.029999 
-83.000000 1682.000000 -44.130001 
25.620001 1746.000000 95.629997 
51.060001 1555.000000 17.580000 
-1.850000 1831.000000 105.980003 
-35.939999 2250.000000 -27.080000 
38.500000 2225.000000 -26.959999 
87.449997 1698.000000 37.119999 
-36.049999 2154.000000 -60.000000 
104.019997 1860.000000 -44.150002 
103.349998 1994.000000 27.690001 
88.330002 1682.000000 32.150002 
-39.450001 1706.000000 88.610001 
45.290001 1625.000000 67.150002 
-8.650000 2157.000000 -70.470001 
-80.209999 1640.000000 -17.049999 
-66.709999 1946.000000 82.379997 
26.139999 1510.000000 40.259998 
24.430000 2028.000000 98.000000 
-54.869999 2115.000000 60.939999 
-67.099998 1608.000000 35.680000 
-52.840000 1937.000000 95.330002 
-44.599998 1560.000000 -43.070000 
-31.930000 1548.000000 -53.139999 
-8.020000 1843.000000 -114.720001 
-52.790001 2130.000000 54.669998 
-92.419998 1738.000000 -35.480000 
67.720001 1608.000000 -34.500000 
-107.660004 1851.000000 17.049999 
4.610000 2056.000000 -87.879997 
81.389999 2115.000000 9.990000 
-95.989998 1695.000000 -1.680000 
61.000000 1929.000000 93.930000 
26.480000 1507.000000 -35.139999 
-77.709999 1787.000000 62.930000 
81.459999 1809.000000 61.389999 
97.959999 1875.000000 -54.299999 
17.660000 1424.000000 9.390000 
75.639999 1627.000000 26.049999 
25.700001 1462.000000 17.330000 
-104.599998 2007.000000 -9.150000 
-17.299999 1531.000000 53.259998 
105.980003 1974.000000 -1.850000 
-115.000000 1918.000000 -0.000000 
-15.720000 2169.000000 63.070000 
66.650002 1598.000000 17.860001 
40.860001 2075.000000 80.190002 
79.459999 2049.000000 55.639999 
104.389999 1965.000000 -18.410000 
61.209999 1583.000000 27.250000 
-11.130000 1416.000000 17.809999 
-33.480000 2174.000000 -55.720001 
-64.660004 1801.000000 88.989998 
62.180000 1620.000000 -41.939999 
68.949997 1917.000000 -88.260002 
-61.389999 1809.000000 -81.459999 
-0.000000 1966.000000 105.000000 
28.469999 1608.000000 -70.470001 
43.840000 1726.000000 -89.879997 
66.550003 1711.000000 62.060001 
-96.510002 1725.000000 17.020000 
-85.650002 2012.000000 -53.520000 
-43.040001 1507.000000 -9.150000 
-35.790001 1649.000000 80.389999 
52.820000 2195.000000 11.230000 
-88.690002 1696.000000 -34.040001 
-94.239998 1695.000000 18.320000 
1.850000 1989.000000 -105.980003 
-87.760002 1714.000000 33.689999 
-105.959999 1889.000000 14.890000 
104.739998 2007.000000 -7.320000 
-63.380001 2147.000000 8.910000 
26.340000 2113.000000 72.360001 
-18.299999 1681.000000 86.080002 
-102.320000 1889.000000 31.280001 
86.379997 1681.000000 -16.790001 
80.190002 2075.000000 -40.860001 
86.379997 1689.000000 16.790001 
-36.000000 1591.000000 -62.349998 
44.040001 1730.000000 86.430000 
17.520000 1897.000000 110.620003 
-93.489998 2063.000000 -9.830000 
-27.690001 1904.000000 103.349998 
-32.680000 1461.000000 -9.370000 
20.930000 2284.000000 26.790001 
97.120003 1838.000000 49.480000 
-44.570000 1512.000000 26.780001 
-106.980003 1993.000000 -1.870000 
43.070000 1577.000000 44.599998 
-34.200001 1787.000000 93.970001 
-99.279999 1941.000000 34.180000 
62.790001 1566.000000 16.820000 
-97.349998 2007.000000 -39.330002 
47.230000 2185.000000 -26.180000 
-87.160004 2042.000000 35.209999 
-13.740000 1591.000000 70.680000 
100.449997 1756.000000 -17.709999 
-18.120001 1573.000000 67.610001 
11.940000 1703.000000 -97.269997 
-43.250000 1511.000000 -27.030001 
34.730000 2198.000000 -35.970001 
65.989998 2144.000000 -1.150000 
-53.139999 1625.000000 -61.130001 
-40.990002 1768.000000 87.910004 
88.330002 2052.000000 -32.150002 
92.440002 1792.000000 43.110001 
61.520000 2147.000000 -17.639999 
-89.050003 2007.000000 55.639999 
16.629999 2094.000000 78.250000 
-55.549999 1583.000000 37.470001 
-17.100000 1488.000000 35.049999 
105.370003 1889.000000 18.580000 
-1.690000 2049.000000 96.989998 
-9.220000 1487.000000 -39.950001 
-24.660000 2244.000000 -35.220001 
8.720000 2031.000000 99.620003 
-35.209999 2042.000000 -87.160004 
35.070000 1636.000000 71.900002 
-112.570000 1891.000000 -9.850000 
7.840000 2107.000000 -89.660004 
53.680000 1708.000000 79.589996 
44.610001 1554.000000 -51.320000 
-17.049999 1922.000000 107.660004 
-55.410000 2085.000000 70.919998 
-74.480003 2126.000000 43.000000 
26.490000 1448.000000 11.800000 
-27.180000 1967.000000 101.419998 
-35.209999 1622.000000 -66.220001 
78.769997 1969.000000 70.930000 
81.389999 2114.000000 -9.990000 
-34.540001 2028.000000 -94.910004 
-56.880001 2072.000000 63.169998 
7.810000 2250.000000 44.320000 
-34.889999 1758.000000 -95.849998 
67.989998 2112.000000 36.150002 
99.769997 1860.000000 53.049999 
92.419998 1750.000000 -35.480000 
54.500000 1885.000000 -94.400002 
-74.599998 1809.000000 -69.559998 
-34.380001 1649.000000 -81.000000 
-72.970001 1904.000000 78.250000 
-107.339996 1869.000000 -18.930000 
16.580000 1780.000000 104.690002 
-70.379997 1616.000000 -22.870001 
3.800000 1817.000000 108.930000 
34.860001 1571.000000 -53.669998 
-34.840000 1964.000000 -101.169998 
26.730000 2303.000000 13.620000 
-52.189999 2211.000000 -9.200000 
0.000000 1783.000000 -107.000000 
-31.260000 1635.000000 -73.639999 
8.320000 2263.000000 36.049999 
-78.029999 1941.000000 70.260002 
60.290001 2144.000000 26.840000 
18.410000 1974.000000 104.389999 
70.860001 1825.000000 -73.370003 
52.860001 2081.000000 -65.279999 
-46.279999 1600.000000 -55.160000 
-25.680000 1444.000000 8.340000 
-68.150002 2127.000000 -26.160000 
-86.070000 2061.000000 26.309999 
-7.670000 1649.000000 -87.669998 
-34.919998 1860.000000 107.470001 
0.000000 1799.000000 -108.000000 
-80.430000 2007.000000 -67.489998 
26.790001 2167.000000 52.570000 
13.450000 1517.000000 43.990002 
-63.049999 2148.000000 -25.469999 
-0.560000 1453.000000 32.000000 
45.220001 1783.000000 -96.970001 
-95.629997 2025.000000 25.620001 
110.620003 1876.000000 -17.520000 
22.660000 1956.000000 106.620003 
-18.809999 2287.000000 25.889999 
34.500000 2142.000000 67.720001 
58.270000 1625.000000 56.270000 
62.580002 1674.000000 -60.439999 
83.500000 1914.000000 -70.059998 
-108.330002 1801.000000 19.100000 
44.169998 1521.000000 -16.070000 
-76.940002 2026.000000 -62.299999 
-44.660000 1653.000000 -68.769997 
18.450001 2114.000000 -79.900002 
-69.989998 1573.000000 -1.220000 
-107.339996 1820.000000 -18.930000 
93.970001 1766.000000 -34.200001 
51.200001 2042.000000 -78.839996 
0.000000 1853.000000 -106.000000 
-0.000000 2286.000000 33.000000 
79.239998 1966.000000 -68.889999 
51.639999 1933.000000 -97.120003 
60.950001 1817.000000 90.370003 
78.250000 1635.000000 -16.629999 
61.889999 2115.000000 53.799999 
-103.750000 1863.000000 7.250000 
52.349998 1539.000000 8.290000 
-97.959999 1945.000000 54.299999 
-95.339996 1995.000000 -48.580002 
62.119999 1553.000000 27.660000 
44.040001 1525.000000 21.480000 
49.020000 2087.000000 75.480003 
97.440002 1726.000000 -22.500000 
-50.349998 2094.000000 -62.169998 
70.709999 1766.000000 70.709999 
-35.650002 2241.000000 24.049999 
-71.110001 1860.000000 -87.820000 
43.689999 1555.000000 31.740000 
55.639999 1728.000000 -79.459999 
95.849998 1777.000000 34.889999 
27.700001 2250.000000 -35.459999 
-8.650000 2299.000000 26.629999 
80.209999 1653.000000 -17.049999 
-73.800003 1694.000000 -47.930000 
-37.560001 1626.000000 70.639999 
86.379997 2056.000000 -16.790001 
-44.669998 2140.000000 -61.490002 
-0.000000 1918.000000 115.000000 
86.070000 1712.000000 26.309999 
103.370003 1846.000000 -37.619999 
-80.449997 1955.000000 75.019997 
-54.299999 1931.000000 -97.959999 
72.370003 1843.000000 -89.370003 
-83.959999 2047.000000 52.459999 
67.400002 1916.000000 89.449997 
-61.990002 1548.000000 -1.080000 
-74.599998 1793.000000 -69.559998 
-88.470001 1957.000000 61.950001 
-43.110001 1808.000000 -92.440002 
-97.010002 1808.000000 -31.520000 
107.660004 1905.000000 17.049999 
108.730003 1820.000000 -7.600000 
9.590000 1949.000000 109.580002 
-84.760002 1695.000000 45.070000 
-99.010002 1990.000000 -28.389999 
-44.720001 1532.000000 33.700001 
-88.900002 1974.000000 57.730000 
0.000000 1439.000000 -28.000000 
-33.459999 1515.000000 -38.490002 
51.730000 1679.000000 -71.190002 
57.730000 1974.000000 -88.900002 
-43.930000 1799.000000 98.660004 
-26.190001 1696.000000 91.320000 
108.000000 1799.000000 0.000000 
19.100000 1801.000000 108.330002 
75.220001 2088.000000 -35.080002 
93.639999 2042.000000 -8.190000 
88.330002 1977.000000 -51.000000 
-0.920000 2201.000000 52.990002 
31.719999 2255.000000 9.100000 
-65.489998 2139.000000 -44.180000 
26.430000 1497.000000 32.639999 
-64.070000 1818.000000 88.180000 
-8.890000 1808.000000 101.610001 
36.549999 1765.000000 -95.230003 
44.669998 1608.000000 61.490002 
-17.680000 1860.000000 -111.610001 
-17.370001 1430.000000 17.980000 
17.170000 2075.000000 88.349998 
-8.400000 2248.000000 -43.189999 
107.110001 1875.000000 -32.750000 
2.410000 1495.000000 -45.939999 
54.509998 2174.000000 -35.400002 
-78.809998 1711.000000 45.500000 
32.680000 1457.000000 -9.370000 
96.129997 2009.000000 -27.559999 
18.709999 2061.000000 -88.029999 
-17.469999 1414.000000 4.350000 
93.720001 1755.000000 28.650000 
72.360001 1623.000000 -26.340000 
-38.759998 2201.000000 -36.150002 
103.370003 1801.000000 37.619999 
25.860001 2167.000000 -53.029999 
-20.840000 2151.000000 -60.509998 
74.589996 1622.000000 -7.840000 
40.410000 2083.000000 -79.300003 
-98.900002 1930.000000 50.389999 
-55.110001 1779.000000 88.199997 
97.089996 1973.000000 37.270000 
-1.850000 1974.000000 -105.980003 
60.779999 2012.000000 80.660004 
-44.919998 1537.000000 -35.090000 
63.090000 1801.000000 -90.110001 
-19.770000 1419.000000 -9.640000 
18.059999 1973.000000 -102.419998 
-25.190001 1897.000000 -109.129997 
-8.210000 1418.000000 -19.330000 
0.000000 1625.000000 -81.000000 
105.940002 1782.000000 3.700000 
-48.299999 2174.000000 43.490002 
15.030000 1799.000000 -106.949997 
-74.599998 1809.000000 69.559998 
-96.449997 1918.000000 62.630001 
26.160000 2238.000000 26.160000 
73.870003 2003.000000 -68.879997 
-76.059998 1863.000000 70.930000 
44.680000 1592.000000 55.180000 
26.840000 2269.000000 17.430000 
-26.740000 2040.000000 93.239998 
-8.550000 1471.000000 37.029999 
-97.730003 1741.000000 35.570000 
100.339996 1888.000000 -42.590000 
7.810000 1931.000000 -111.730003 
71.879997 1664.000000 -54.160000 
53.049999 1860.000000 99.769997 
-26.000000 2297.000000 -0.450000 
84.660004 1946.000000 63.790001 
-69.540001 1969.000000 -80.000000 
-8.210000 1559.000000 -58.430000 
53.490002 1669.000000 73.620003 
-74.599998 1977.000000 69.559998 
-0.000000 1670.000000 88.000000 
86.930000 2107.000000 -23.290001 
-76.400002 1661.000000 -37.259998 
98.889999 1923.000000 -52.580002 
44.680000 2157.000000 55.180000 
-61.619999 2145.000000 23.650000 
52.660000 2131.000000 -49.099998 
-45.639999 1827.000000 -97.879997 
-62.180000 1772.000000 -79.589996 
-75.940002 2139.000000 -21.780001 
-74.599998 1824.000000 -69.559998 
-92.849998 1945.000000 -62.630001 
-52.840000 1912.000000 -95.330002 
70.430000 2138.000000 14.970000 
-3.700000 1782.000000 105.940002 
40.779999 1505.000000 19.020000 
86.430000 1768.000000 44.040001 
-71.669998 1755.000000 66.839996 
-52.900002 2053.000000 72.809998 
-52.830002 1999.000000 -81.349998 
10.110000 1450.000000 -25.030001 
-14.080000 1664.000000 88.889999 
-77.949997 2093.000000 18.000000 
-61.950001 1957.000000 -88.470001 
78.760002 2050.000000 -53.119999 
48.860001 1548.000000 -38.169998 
104.320000 1858.000000 -27.950001 
18.990000 2201.000000 -49.480000 
34.500000 2140.000000 -67.720001 
54.180000 1689.000000 69.339996 
-44.930000 1918.000000 105.860001 
103.430000 1741.000000 10.870000 
-9.830000 1682.000000 -93.489998 
-99.580002 1817.000000 -44.330002 
-59.290001 1577.000000 -18.129999 
-8.340000 2224.000000 -47.270000 
-85.529999 1652.000000 -8.990000 
-35.570000 1741.000000 97.730003 
-90.930000 1935.000000 63.669998 
75.949997 2130.000000 2.650000 
79.160004 1652.000000 -33.599998 
-81.459999 1776.000000 -61.389999 
-62.799999 1765.000000 80.379997 
70.709999 1883.000000 -84.260002 
-106.019997 1957.000000 -20.610001 
101.169998 1844.000000 34.840000 
-33.700001 1531.000000 -44.720001 
42.709999 2007.000000 95.919998 
94.290001 2003.000000 36.200001 
49.520000 2161.000000 37.310001 
101.010002 1756.000000 14.200000 
20.469999 1573.000000 -66.940002 
-53.369999 2019.000000 82.190002 
-97.010002 1808.000000 31.520000 
-61.369999 1889.000000 -87.650002 
108.730003 1818.000000 7.600000 
45.639999 1827.000000 97.879997 
-26.370001 1880.000000 -105.760002 
-91.099998 1686.000000 -12.800000 
-80.089996 1720.000000 58.189999 
-17.709999 1792.000000 100.449997 
35.869999 1538.000000 -44.299999 
8.860000 2220.000000 50.230000 
13.510000 2174.000000 -63.580002 
-89.050003 1961.000000 -55.639999 
45.570000 1710.000000 -82.209999 
49.810001 2063.000000 79.720001 
18.930000 1912.000000 107.339996 
69.550003 2131.000000 -18.629999 
-106.620003 1817.000000 22.660000 
-71.190002 1694.000000 51.730000 
-63.090000 1920.000000 90.110001 
17.299999 1532.000000 53.259998 
52.840000 1835.000000 -95.330002 
-86.919998 1681.000000 13.770000 
-34.970001 2144.000000 55.970001 
101.980003 1757.000000 -1.780000 
-90.559998 1768.000000 -34.759998 
101.419998 1941.000000 27.180000 
88.330002 1959.000000 51.000000 
44.669998 1608.000000 -61.490002 
-61.130001 1679.000000 63.299999 
-16.110001 1983.000000 101.730003 
-70.279999 2056.000000 -52.959999 
-13.040000 1964.000000 -106.199997 
18.139999 1620.000000 -72.769997 
-52.820000 1555.000000 -11.230000 
-107.339996 1836.000000 18.930000 
-80.089996 1735.000000 58.189999 
-39.480000 2167.000000 -43.849998 
36.639999 2264.000000 -5.150000 
23.940001 2215.000000 -45.029999 
25.700001 2238.000000 -26.620001 
-97.879997 1799.000000 -45.639999 
66.419998 1862.000000 91.419998 
17.459999 2098.000000 -82.160004 
61.040001 2017.000000 -75.379997 
69.540001 1989.000000 80.000000 
-101.330002 1971.000000 -23.389999 
77.989998 1642.000000 25.340000 
97.989998 1703.000000 -1.710000 
-44.000000 1670.000000 -76.209999 
-16.680000 1500.000000 -37.459999 
48.639999 2139.000000 62.250000 
-71.279999 1627.000000 36.320000 
103.230003 1891.000000 45.959999 
-98.519997 1757.000000 -26.400000 
-42.590000 1922.000000 -100.339996 
-35.380001 2263.000000 -10.820000 
-21.480000 2206.000000 44.040001 
62.520000 2075.000000 64.739998 
52.590000 1593.000000 38.209999 
4.320000 1548.000000 61.849998 
-34.610001 1931.000000 106.519997 
-111.570000 1931.000000 -9.760000 
25.080000 2060.000000 87.470001 
-32.740002 2224.000000 35.099998 
85.190002 1863.000000 59.650002 
98.040001 1739.000000 -13.780000 
41.759998 2211.000000 -32.630001 
-54.119999 2126.000000 -66.830002 
72.269997 1957.000000 -80.260002 
108.330002 1846.000000 -19.100000 
35.639999 1476.000000 -18.160000 
31.520000 1808.000000 97.010002 
3.110000 2069.000000 88.949997 
-82.209999 2063.000000 45.570000 
9.300000 2055.000000 88.510002 
-79.459999 1730.000000 -55.639999 
-104.050003 1946.000000 20.230000 
-41.549999 2207.000000 25.969999 
8.870000 1416.000000 19.030001 
95.160004 1739.000000 27.290001 
-17.520000 1861.000000 110.620003 
-10.720000 1399.000000 9.000000 
36.790001 1891.000000 106.839996 
69.860001 2063.000000 -62.900002 
52.480000 1539.000000 -7.380000 
75.720001 1880.000000 78.410004 
-94.400002 1905.000000 54.500000 
-77.230003 1703.000000 -60.330002 
43.970001 2248.000000 1.540000 
87.650002 1666.000000 -15.450000 
-79.470001 2061.000000 -42.250000 
-51.730000 1689.000000 71.190002 
-79.089996 2078.000000 -38.580002 
45.549999 1876.000000 -102.320000 
-74.599998 1824.000000 69.559998 
-8.590000 1502.000000 44.169998 
-17.190001 2025.000000 -97.500000 
7.320000 1845.000000 104.739998 
-106.839996 1860.000000 36.790001 
-59.099998 1616.000000 -44.529999 
-17.080000 2233.000000 38.369999 
-43.520000 1947.000000 -97.750000 
16.219999 1661.000000 83.440002 
-0.100000 1350.000000 -6.000000 
91.419998 1860.000000 -66.419998 
-95.160004 1845.000000 -44.369999 
-80.449997 1846.000000 -75.019997 
89.209999 1825.000000 -49.450001 
-16.740000 1828.000000 105.680000 
-55.410000 2075.000000 -70.919998 
-103.059998 1956.000000 -35.490002 
-99.769997 1891.000000 53.049999 
-65.029999 1554.000000 -19.879999 
61.040001 1721.000000 75.379997 
43.950001 1805.000000 -94.260002 
-105.980003 1975.000000 -1.850000 
-91.349998 2016.000000 40.669998 
26.660000 1810.000000 -99.489998 
9.460000 1584.000000 -67.339996 
78.989998 1799.000000 73.660004 
-25.969999 1525.000000 41.549999 
98.010002 1955.000000 -49.939999 
-53.430000 1565.000000 33.380001 
16.840000 1721.000000 95.529999 
-49.939999 1846.000000 -98.010002 
8.600000 2191.000000 -54.320000 
60.799999 1853.000000 -86.830002 
-21.370001 1892.000000 109.940002 
55.540001 2095.000000 61.680000 
-85.029999 1930.000000 -71.349998 
-75.019997 1955.000000 -80.449997 
35.790001 1649.000000 80.389999 
-47.419998 1747.000000 89.180000 
-9.200000 2078.000000 87.519997 
62.900002 1714.000000 -69.860001 
26.620001 1480.000000 25.700001 
-60.330002 1755.000000 -77.230003 
8.770000 2303.000000 28.690001 
-89.889999 1682.000000 -27.480000 
-88.080002 1725.000000 -42.959999 
7.160000 1428.000000 -20.799999 
-90.879997 1669.000000 -4.760000 
62.169998 1656.000000 57.970001 
25.309999 1619.000000 69.540001 
-26.340000 2112.000000 -72.360001 
100.220001 1974.000000 -34.509998 
9.380000 2113.000000 76.430000 
-51.000000 1761.000000 -88.330002 
82.849998 2087.000000 35.169998 
-69.860001 2042.000000 -62.900002 
-100.910004 1986.000000 25.160000 
17.990000 1918.000000 -113.580002 
-11.820000 2038.000000 96.279999 
25.969999 1525.000000 41.549999 
-112.000000 1879.000000 -0.000000 
-95.919998 1941.000000 -42.709999 
72.769997 1731.000000 61.060001 
-1.660000 1731.000000 -94.989998 
-62.180000 1789.000000 -79.589996 
91.830002 1741.000000 -48.830002 
106.620003 1817.000000 -22.660000 
106.209999 1905.000000 -24.520000 
-89.290001 1912.000000 -62.520000 
88.510002 2054.000000 9.300000 
-5.130000 2048.000000 -97.870003 
71.930000 1726.000000 -69.470001 
77.519997 1674.000000 39.500000 
-30.469999 1487.000000 27.430000 
-24.190001 1773.000000 97.029999 
42.770000 2221.000000 27.780001 
97.570000 1989.000000 41.419998 
-34.889999 1756.000000 95.849998 
88.330002 1682.000000 -32.150002 
-28.940001 2007.000000 -100.930000 
-98.959999 1975.000000 -37.990002 
44.290001 2126.000000 73.720001 
88.610001 1729.000000 -39.450001 
35.119999 2029.000000 -91.489998 
72.720001 2139.000000 -30.870001 
-9.240000 1940.000000 105.599998 
18.410000 1940.000000 -104.389999 
18.410000 1781.000000 -104.389999 
50.470001 2048.000000 84.000000 
-20.080000 1644.000000 -80.529999 
51.400002 1563.000000 -34.669998 
18.129999 2201.000000 49.799999 
102.419998 1973.000000 18.059999 
-109.919998 1930.000000 15.450000 
95.919998 2007.000000 -42.709999 
-70.709999 1981.000000 -70.709999 
-64.029999 1741.000000 -81.949997 
-107.599998 1801.000000 -22.870001 
96.510002 1703.000000 17.020000 
79.199997 1945.000000 79.199997 
67.610001 2154.000000 18.120001 
68.769997 1640.000000 -44.660000 
-50.910000 1967.000000 -91.839996 
104.000000 1863.000000 0.000000 
-17.639999 1571.000000 -61.520000 
-38.580002 2056.000000 79.089996 
-61.369999 1889.000000 87.650002 
-30.469999 1500.000000 -27.430000 
-97.120003 1921.000000 -51.639999 
51.990002 2208.000000 -0.910000 
34.610001 1861.000000 -106.519997 
-70.389999 1637.000000 -35.869999 
-44.680000 2157.000000 55.180000 
-66.150002 2000.000000 -70.940002 
-24.350000 1593.000000 60.270000 
-31.520000 1808.000000 97.010002 
-84.680000 1662.000000 7.410000 
13.160000 1506.000000 -43.029999 
-59.830002 1942.000000 -88.709999 
43.189999 1501.000000 -8.400000 
50.849998 1875.000000 99.790001 
57.520000 1606.000000 44.939999 
-62.250000 1637.000000 -48.639999 
102.430000 1956.000000 37.279999 
52.430000 2147.000000 -36.709999 
29.969999 2093.000000 -74.169998 
-8.720000 1773.000000 -99.620003 
-43.110001 1791.000000 -92.440002 
89.800003 1932.000000 65.239998 
-83.139999 2072.000000 -17.670000 
-25.889999 1995.000000 103.820000 
19.879999 2155.000000 -65.029999 
-26.370001 1842.000000 -105.760002 
-67.400002 1875.000000 -89.449997 
-67.169998 1666.000000 58.389999 
-72.809998 2107.000000 -52.900002 
6.280000 1712.000000 89.779999 
-47.160000 2069.000000 75.480003 
60.950001 1872.000000 -90.370003 
-108.849998 1905.000000 5.700000 
87.980003 2068.000000 26.900000 
-105.760002 1914.000000 -26.370001 
75.019997 1926.000000 -77.690002 
-111.930000 1945.000000 -3.910000 
-94.400002 1886.000000 -54.500000 
-26.969999 2137.000000 66.760002 
67.379997 2000.000000 69.779999 
70.199997 1903.000000 -80.750000 
-9.320000 2268.000000 34.770000 
-87.160004 2042.000000 -35.209999 
58.279999 1995.000000 89.739998 
-56.779999 2047.000000 -81.099998 
-101.879997 2006.000000 25.400000 
78.940002 2103.000000 25.650000 
-88.349998 1712.000000 17.170000 
43.939999 1539.000000 29.639999 
27.660000 2155.000000 62.119999 
-5.600000 1947.000000 -106.849998 
52.840000 1912.000000 95.330002 
79.589996 1982.000000 -62.180000 
87.320000 1703.000000 -44.490002 
62.180000 1754.000000 -79.589996 
89.449997 1931.000000 -67.400002 
-17.559999 2207.000000 -45.750000 
-2.760000 2104.000000 78.949997 
-35.910000 1845.000000 98.669998 
28.870001 1524.000000 -44.450001 
-35.950001 2236.000000 -17.530001 
39.599998 1487.000000 10.610000 
-105.900002 1931.000000 -36.459999 
-105.959999 1904.000000 -14.890000 
74.599998 1760.000000 -69.559998 
98.889999 1875.000000 52.580002 
-101.750000 1825.000000 7.120000 
-38.529999 1487.000000 14.020000 
-53.970001 2196.000000 -1.880000 
19.320000 1441.000000 -17.400000 
23.440001 1591.000000 -68.080002 
-47.500000 2035.000000 -82.269997 
28.840000 2302.000000 -8.270000 
-87.910004 2020.000000 -40.990002 
54.790001 2193.000000 -15.710000 
30.900000 1976.000000 -95.110001 
27.290001 1996.000000 -95.160004 
74.570000 2100.000000 -44.810001 
71.339996 1695.000000 64.239998 
98.010002 1939.000000 -49.939999 
33.680000 1839.000000 103.669998 
79.220001 1636.000000 11.130000 
41.090000 2206.000000 26.690001 
38.580002 1649.000000 -79.089996 
25.100000 1583.000000 62.119999 
-26.959999 2225.000000 -38.500000 
13.040000 1993.000000 106.199997 
-43.630001 1713.000000 -78.720001 
-87.459999 1976.000000 -48.480000 
-73.080002 2094.000000 32.540001 
79.900002 1862.000000 79.900002 
97.180000 1720.000000 18.889999 
36.709999 2147.000000 -52.430000 
-61.279999 2094.000000 -51.419998 
-74.699997 1637.000000 25.719999 
113.879997 1918.000000 -16.000000 
51.320000 1553.000000 44.610001 
86.099998 2051.000000 40.150002 
-49.799999 1524.000000 -18.129999 
-64.360001 1694.000000 -60.020000 
-55.160000 1591.000000 -46.279999 
36.139999 1930.000000 -104.949997 
107.470001 1860.000000 34.919998 
-105.639999 1873.000000 22.450001 
-8.800000 2284.000000 -32.840000 
-87.879997 1795.000000 -59.270000 
-10.300000 2135.000000 73.279999 
-46.810001 2147.000000 43.650002 
20.430000 1537.000000 -53.209999 
88.660004 2079.000000 -7.760000 
81.790001 2126.000000 -26.580000 
67.739998 1554.000000 5.930000 
-87.430000 1808.000000 52.529999 
3.820000 2127.000000 72.900002 
44.299999 2193.000000 35.869999 
-70.849998 1834.000000 81.510002 
-97.459999 2021.000000 -10.240000 
-65.820000 1713.000000 -61.380001 
-9.720000 1544.000000 55.150002 
81.949997 1641.000000 -2.860000 
93.250000 1696.000000 -18.129999 
-76.790001 2006.000000 71.610001 
55.110001 1774.000000 -88.199997 
48.830002 1863.000000 -91.830002 
-76.379997 1897.000000 -81.910004 
83.930000 1873.000000 -67.970001 
55.970001 2187.000000 -1.950000 
-78.570000 1639.000000 8.260000 
-49.720001 1637.000000 61.389999 
94.260002 1778.000000 -43.950001 
-78.900002 1992.000000 66.209999 
78.489998 1986.000000 68.230003 
-105.900002 1876.000000 -36.459999 
17.020000 1703.000000 96.510002 
87.370003 1827.000000 63.480000 
-18.709999 2061.000000 88.029999 
-74.309998 1706.000000 62.349998 
51.730000 1649.000000 -71.190002 
105.900002 1929.000000 36.459999 
81.290001 1860.000000 -78.500000 
-23.959999 2303.000000 18.049999 
-65.489998 2120.000000 -44.180000 
-70.110001 2110.000000 34.189999 
-72.860001 1662.000000 43.779999 
-40.990002 1730.000000 87.910004 
85.650002 2001.000000 -53.520000 
87.900002 1668.000000 13.920000 
10.450000 1769.000000 -99.449997 
1.030000 2167.000000 -58.990002 
85.669998 1652.000000 7.500000 
9.590000 1953.000000 -109.580002 
2.370000 1554.000000 -67.959999 
-96.459999 2030.000000 -22.270000 
106.000000 1833.000000 0.000000 
43.070000 2165.000000 -44.599998 
98.160004 1770.000000 19.080000 
99.029999 1771.000000 -13.920000 
-97.180000 1720.000000 -18.889999 
-30.900000 1981.000000 95.110001 
-52.959999 1692.000000 -70.279999 
-29.059999 1574.000000 57.020000 
-88.180000 1818.000000 -64.070000 
-109.370003 1843.000000 35.540001 
21.290001 1676.000000 85.389999 
-97.459999 1755.000000 -10.240000 
-49.150002 1550.000000 34.410000 
90.360001 1710.000000 -25.910000 
-56.139999 1817.000000 -93.430000 
-25.879999 2009.000000 96.589996 
106.669998 1957.000000 16.889999 
-44.369999 2006.000000 -95.160004 
11.820000 2000.000000 -96.279999 
64.519997 1566.000000 -7.920000 
60.950001 1818.000000 -90.370003 
39.060001 1905.000000 101.760002 
88.349998 2087.000000 17.170000 
95.500000 1788.000000 -32.880001 
-73.209999 2040.000000 63.639999 
-35.509998 2167.000000 47.119999 
-64.660004 1846.000000 88.989998 
-17.100000 2143.000000 -74.050003 
12.500000 1599.000000 70.910004 
-87.690002 2087.000000 -20.250000 
-27.230000 2179.000000 51.209999 
35.869999 2119.000000 -70.389999 
55.230000 1552.000000 -23.440001 
-103.599998 1774.000000 -9.060000 
-100.809998 1831.000000 32.759998 
-76.320000 2107.000000 47.689999 
-25.889999 1947.000000 -103.820000 
-87.459999 1744.000000 -48.480000 
-27.100000 1945.000000 108.669998 
-53.259998 1547.000000 17.299999 
-20.090000 2169.000000 -61.820000 
-41.939999 1496.000000 2.200000 
0.000000 1391.000000 -8.000000 
102.860001 1992.000000 -5.390000 
-89.290001 1820.000000 62.520000 
44.599998 1696.000000 83.879997 
38.650002 1862.000000 106.190002 
100.449997 1808.000000 17.709999 
-80.570000 1876.000000 77.800003 
-53.619999 2154.000000 -45.000000 
17.510000 2260.000000 -29.139999 
13.500000 2017.000000 96.059998 
73.410004 1609.000000 -19.670000 
-27.670000 1662.000000 80.370003 
-57.290001 2181.000000 -9.070000 
-79.669998 1863.000000 -66.849998 
43.529999 1992.000000 93.349998 
41.080002 2233.000000 -8.730000 
-96.839996 1781.000000 -43.110001 
106.199997 1942.000000 13.040000 
33.619999 1918.000000 109.980003 
-79.559998 2114.000000 19.840000 
87.879997 1946.000000 -59.270000 
5.500000 2007.000000 104.860001 
-83.110001 1749.000000 51.930000 
-31.520000 1825.000000 97.010002 
-8.550000 1442.000000 23.490000 
-10.070000 2184.000000 57.119999 
-98.459999 2026.000000 10.350000 
93.529999 1907.000000 54.000000 
19.799999 1649.000000 -85.739998 
-9.410000 2087.000000 -89.510002 
-26.469999 1445.000000 -9.120000 
22.250000 2131.000000 -68.480003 
104.620003 1882.000000 33.990002 
91.800003 1794.000000 -53.000000 
21.000000 2028.000000 -98.790001 
53.799999 1640.000000 61.889999 
78.470001 1768.000000 57.020000 
71.820000 1614.000000 5.020000 
-20.469999 1711.000000 88.669998 
79.860001 2031.000000 -60.180000 
100.449997 1791.000000 17.709999 
-67.290001 2159.000000 19.290001 
87.000000 1674.000000 0.000000 
79.589996 2028.000000 62.180000 
18.709999 2107.000000 88.029999 
-71.720001 1642.000000 39.750000 
-56.689999 2183.000000 5.960000 
-101.889999 1852.000000 -29.219999 
4.810000 1687.000000 -91.870003 
-97.500000 2047.000000 17.190001 
-96.589996 1787.000000 -25.879999 
5.940000 1483.000000 -37.529999 
-62.520000 2107.000000 -64.739998 
8.940000 2242.000000 -42.060001 
-27.240000 1608.000000 -70.949997 
-2.090000 1489.000000 39.950001 
-24.680000 1977.000000 -98.970001 
-99.769997 1860.000000 53.049999 
36.200001 1958.000000 94.290001 
0.000000 2297.000000 -26.000000 
-67.599998 1918.000000 -93.040001 
33.250000 1555.000000 42.549999 
-53.799999 1640.000000 -61.889999 
-28.469999 2159.000000 63.950001 
89.150002 1985.000000 53.560001 
89.330002 1712.000000 -10.970000 
-104.980003 1845.000000 1.830000 
-0.980000 1531.000000 55.990002 
9.500000 1818.000000 -108.589996 
-49.330002 2126.000000 70.449997 
-53.919998 1998.000000 83.029999 
20.000000 1489.000000 -34.639999 
-40.860001 2075.000000 -80.190002 
-74.339996 1913.000000 -79.720001 
97.989998 2018.000000 1.710000 
94.290001 1960.000000 -36.200001 
78.639999 1717.000000 55.060001 
100.809998 1832.000000 -32.759998 
-45.400002 1726.000000 -89.099998 
70.449997 1650.000000 45.750000 
98.260002 2025.000000 -12.070000 
68.919998 1991.000000 -76.540001 
-44.169998 2249.000000 -8.590000 
-87.470001 1669.000000 25.080000 
61.570000 1787.000000 78.800003 
-62.180000 2028.000000 -79.589996 
-32.830002 1717.000000 -90.209999 
-30.059999 1577.000000 -54.230000 
27.230000 2184.000000 -51.209999 
27.360001 1635.000000 -75.180000 
93.239998 2049.000000 26.740000 
27.809999 2087.000000 85.599998 
2.860000 1640.000000 -81.949997 
49.450001 1531.000000 -26.290001 
98.889999 1900.000000 -52.580002 
-53.230000 1602.000000 51.400002 
-20.430000 1538.000000 -53.209999 
-67.570000 1992.000000 77.739998 
40.150002 1696.000000 -86.099998 
-64.110001 2063.000000 -68.750000 
-96.839996 1739.000000 -20.580000 
16.740000 1889.000000 -105.680000 
-43.500000 1616.000000 59.869999 
54.700001 2167.000000 -22.100000 
-100.449997 1789.000000 -10.560000 
-59.970001 1653.000000 -55.919998 
8.360000 1627.000000 79.559998 
49.029999 1890.000000 96.230003 
63.570000 1698.000000 -70.599998 
-10.980000 1845.000000 104.419998 
-84.860001 2025.000000 50.990002 
-88.180000 1869.000000 64.070000 
73.870003 1747.000000 68.879997 
-101.989998 1954.000000 41.209999 
61.000000 1899.000000 93.930000 
-6.650000 1452.000000 -31.299999 
90.580002 1849.000000 58.820000 
-101.610001 1757.000000 8.890000 
-108.589996 1835.000000 -9.500000 
-101.059998 1905.000000 40.830002 
-18.379999 1436.000000 -18.379999 
-9.870000 1625.000000 80.400002 
43.759998 1931.000000 103.099998 
-44.459999 1580.000000 -46.040001 
-85.110001 2082.000000 26.020000 
-52.849998 1540.000000 -21.350000 
26.190001 1731.000000 -91.320000 
90.000000 2066.000000 0.000000 
-106.209999 1913.000000 24.520000 
-87.690002 2107.000000 -20.250000 
20.700001 1687.000000 -89.639999 
107.660004 1870.000000 17.049999 
-47.680000 1555.000000 -25.350000 
16.580000 1852.000000 -104.690002 
16.840000 1768.000000 95.529999 
-103.059998 1835.000000 -35.490002 
103.070000 2007.000000 20.030001 
48.480000 1787.000000 87.459999 
30.320000 1938.000000 105.739998 
-62.930000 1726.000000 -77.709999 
18.379999 1436.000000 18.379999 
70.849998 1849.000000 81.510002 
84.709999 1754.000000 55.009998 
103.680000 1852.000000 22.040001 
-8.630000 1997.000000 -98.620003 
-26.469999 1460.000000 9.120000 
8.290000 2155.000000 67.489998 
-72.809998 1663.000000 -52.900002 
-72.809998 2075.000000 -52.900002 
63.810001 2174.000000 -12.400000 
-21.730000 1429.000000 3.440000 
82.949997 2090.000000 2.900000 
60.889999 2060.000000 67.629997 
4.400000 1657.000000 -83.879997 
90.059998 1808.000000 -47.889999 
49.790001 2127.000000 53.389999 
-89.510002 2087.000000 9.410000 
-26.879999 2100.000000 82.739998 
49.990002 1526.000000 0.870000 
26.139999 2008.000000 97.559998 
14.200000 1825.000000 101.010002 
-57.029999 1553.000000 -37.040001 
-86.720001 1668.000000 -20.020000 
51.209999 1513.000000 9.030000 
-93.589996 1830.000000 -49.759998 
-105.370003 1942.000000 -18.580000 
-17.920000 1557.000000 55.160000 
73.820000 1603.000000 -5.160000 
-19.860001 2255.000000 26.350000 
-58.419998 1566.000000 -28.490000 
-97.089996 1754.000000 27.840000 
-56.700001 1904.000000 90.739998 
1.120000 1465.000000 -31.980000 
29.360001 1696.000000 90.349998 
-1.640000 1714.000000 -93.989998 
-13.650000 1878.000000 111.169998 
-27.350000 2081.000000 79.419998 
-30.870001 1915.000000 -107.660004 
-66.690002 2127.000000 29.690001 
106.199997 1993.000000 13.040000 
-53.119999 1705.000000 78.760002 
64.440002 1573.000000 -27.350000 
45.959999 2173.000000 45.959999 
96.940002 2033.000000 3.390000 
-71.889999 2112.000000 -27.590000 
36.459999 1945.000000 -105.900002 
64.949997 1739.000000 -74.720001 
40.099998 2249.000000 20.430000 
-25.360001 1703.000000 -94.660004 
-16.670000 1716.000000 -94.540001 
108.930000 1951.000000 -15.310000 
89.449997 1879.000000 67.400002 
-7.740000 1930.000000 -110.730003 
-51.730000 2162.000000 -32.330002 
-70.129997 2069.000000 54.790001 
-41.310001 1669.000000 81.080002 
32.689999 2193.000000 46.689999 
-70.000000 1740.000000 70.000000 
-78.570000 2104.000000 -8.260000 
71.879997 2087.000000 -54.160000 
-5.650000 1826.000000 -107.849998 
-16.500000 1731.000000 93.559998 
-20.430000 2249.000000 40.099998 
68.750000 2042.000000 64.110001 
26.180000 1555.000000 -47.230000 
-36.910000 1992.000000 -96.160004 
53.490002 1623.000000 -55.389999 
8.450000 2189.000000 53.340000 
-65.599998 1874.000000 87.050003 
-63.520000 2147.000000 -7.800000 
-36.790001 1860.000000 -106.839996 
-18.299999 1670.000000 -86.080002 
-6.970000 2105.000000 -79.699997 
-35.090000 1537.000000 44.919998 
50.419998 1973.000000 90.959999 
-95.989998 2045.000000 1.680000 
-79.809998 1630.000000 -5.580000 
33.689999 1714.000000 87.760002 
-98.410004 2004.000000 -22.719999 
28.870001 2211.000000 44.450001 
74.720001 2014.000000 64.949997 
34.200001 1976.000000 93.970001 
49.720001 2139.000000 -61.389999 
61.000000 2162.000000 0.000000 
-16.410000 2126.000000 -84.419998 
78.489998 1895.000000 78.489998 
80.470001 1686.000000 -44.599998 
63.090000 1950.000000 -90.110001 
35.750000 1495.000000 -28.950001 
69.230003 1955.000000 85.489998 
38.060001 2233.000000 17.750000 
94.120003 2034.000000 -23.469999 
18.920000 1669.000000 -89.010002 
53.509998 1600.000000 -48.180000 
-52.580002 1876.000000 -98.889999 
7.740000 1466.000000 31.049999 
-35.869999 2193.000000 44.299999 
-68.769997 1720.000000 71.209999 
-61.490002 2112.000000 46.340000 
14.500000 2143.000000 74.599998 
20.230000 1555.000000 50.070000 
9.000000 1399.000000 10.720000 
23.180000 2182.000000 52.070000 
92.580002 1810.000000 45.150002 
-72.599998 2127.000000 7.630000 
84.320000 1829.000000 -65.879997 
-16.879999 1462.000000 -26.000000 
26.139999 1754.000000 -97.559998 
-44.660000 1653.000000 68.769997 
-76.209999 1678.000000 44.000000 
-25.990000 1608.000000 71.419998 
37.630001 2007.000000 -98.029999 
60.779999 1772.000000 80.660004 
69.940002 1712.000000 -56.639999 
44.740002 1801.000000 100.489998 
-31.879999 2286.000000 8.540000 
-35.480000 2023.000000 92.419998 
-30.900000 1550.000000 51.430000 
-51.930000 1527.000000 -2.720000 
58.709999 2104.000000 -52.860001 
-24.740000 2129.000000 -71.860001 
61.139999 1651.000000 -59.049999 
84.800003 2009.000000 52.990002 
93.239998 2017.000000 26.740000 
-34.750000 1488.000000 -17.709999 
-42.770000 2221.000000 -27.780001 
87.430000 1760.000000 -52.529999 
-0.000000 1861.000000 112.000000 
55.619999 1957.000000 92.570000 
-27.170000 2268.000000 23.620001 
-27.950001 1873.000000 104.320000 
-37.619999 1955.000000 103.370003 
30.430000 2285.000000 9.890000 
-88.209999 1996.000000 44.950001 
84.709999 1960.000000 -55.009998 
-18.059999 1741.000000 -102.419998 
83.029999 1720.000000 -53.919998 
-8.680000 2217.000000 49.240002 
46.290001 1656.000000 71.290001 
-10.870000 1741.000000 103.430000 
0.000000 2033.000000 -97.000000 
69.940002 2086.000000 56.639999 
-0.000000 1566.000000 65.000000 
13.640000 1737.000000 97.050003 
-7.810000 1879.000000 -111.730003 
-52.279999 1531.000000 20.070000 
-54.279999 1580.000000 -33.910000 
-89.540001 1873.000000 -60.389999 
77.779999 1921.000000 77.779999 
-42.080002 1507.000000 12.860000 
-66.080002 1845.000000 -81.599998 
-72.000000 1591.000000 -0.000000 
-58.820000 1834.000000 -90.580002 
35.160000 1827.000000 -102.120003 
85.650002 2034.000000 -45.540001 
53.880001 2118.000000 -57.779999 
4.960000 1411.000000 -17.299999 
23.850000 2249.000000 38.160000 
-54.560001 2094.000000 58.509998 
-62.790001 1566.000000 16.820000 
70.470001 2130.000000 28.469999 
70.279999 1694.000000 -52.959999 
-17.709999 1792.000000 -100.449997 
-46.380001 1553.000000 49.730000 
46.950001 1771.000000 88.290001 
-4.620000 1539.000000 -52.799999 
107.110001 1897.000000 32.750000 
-50.419998 1741.000000 -90.959999 
-23.260000 1554.000000 -63.900002 
-0.240000 1381.000000 7.000000 
80.660004 1747.000000 -60.779999 
-2.550000 1606.000000 72.959999 
45.209999 2103.000000 69.610001 
98.000000 1719.000000 0.000000 
-69.430000 1601.000000 22.559999 
-96.239998 1905.000000 -51.169998 
13.260000 2238.000000 34.540001 
-100.550003 1904.000000 -36.599998 
77.709999 1787.000000 -62.930000 
-8.450000 1706.000000 96.629997 
-25.590000 1486.000000 -29.430000 
45.639999 1957.000000 -97.879997 
26.879999 2077.000000 -82.739998 
-71.209999 1735.000000 -68.769997 
-55.389999 1623.000000 53.490002 
-19.930000 1525.000000 -44.759998 
86.669998 2100.000000 -7.580000 
-60.919998 1598.000000 -32.389999 
107.599998 1938.000000 -22.870001 
47.119999 2224.000000 9.160000 
53.500000 1942.000000 92.660004 
-87.879997 1853.000000 -59.270000 
-28.510000 2276.000000 -14.530000 
-84.870003 2048.000000 -49.000000 
-33.689999 1682.000000 87.760002 
1.950000 1917.000000 -111.980003 
22.660000 1866.000000 106.620003 
-93.940002 1709.000000 3.280000 
-94.239998 2045.000000 -18.320000 
-64.639999 1961.000000 82.739998 
-34.959999 2117.000000 68.610001 
99.889999 1828.000000 38.349998 
64.459999 2127.000000 -34.270000 
79.720001 1817.000000 74.339996 
7.120000 1793.000000 101.750000 
-49.480000 1838.000000 97.120003 
-93.970001 1976.000000 34.200001 
-88.180000 1884.000000 64.070000 
16.459999 1451.000000 22.650000 
-7.520000 2196.000000 -53.470001 
46.029999 1845.000000 94.370003 
35.950001 2065.000000 -84.690002 
-41.720001 2242.000000 10.400000 
80.750000 1844.000000 70.199997 
-9.880000 2157.000000 70.309998 
-43.950001 1863.000000 94.260002 
-54.240002 2040.000000 80.419998 
76.370003 1943.000000 -76.370003 
106.019997 1890.000000 -20.610001 
-22.340000 1474.000000 30.740000 
-52.000000 2191.000000 17.910000 
-35.480000 1472.000000 13.620000 
-62.549999 1583.000000 24.010000 
34.759998 2049.000000 90.559998 
1.880000 1890.000000 -107.980003 
44.040001 1999.000000 -86.430000 
70.279999 1679.000000 52.959999 
-60.669998 2163.000000 6.380000 
-77.040001 2074.000000 35.919998 
86.430000 2034.000000 44.040001 
-34.200001 1743.000000 -93.970001 
78.989998 1890.000000 -73.660004 
-62.230000 1679.000000 -62.230000 
0.000000 2211.000000 -53.000000 
-42.259998 1773.000000 -90.629997 
70.339996 2112.000000 -31.320000 
-13.740000 1599.000000 -70.680000 
17.340000 1419.000000 -13.540000 
-52.660000 2131.000000 -49.099998 
26.209999 2287.000000 -18.350000 
-80.000000 1965.000000 -69.540001 
26.400000 1793.000000 -98.519997 
-82.889999 2090.000000 -4.340000 
-10.720000 1406.000000 -9.000000 
10.970000 2086.000000 -89.330002 
-35.810001 1801.000000 -104.010002 
62.480000 2169.000000 17.920000 
-85.599998 2061.000000 -27.809999 
-17.790001 1513.000000 48.860001 
108.980003 1848.000000 1.900000 
74.610001 2107.000000 50.330002 
-13.890000 2093.000000 78.779999 
10.400000 1526.000000 -48.910000 
111.930000 1876.000000 3.910000 
79.860001 2016.000000 -60.180000 
-10.560000 2001.000000 100.449997 
-73.480003 1929.000000 -84.529999 
9.500000 1839.000000 -108.589996 
-41.419998 1970.000000 97.570000 
-96.199997 1703.000000 -18.700001 
49.330002 2185.000000 21.959999 
17.049999 1880.000000 107.660004 
-105.980003 1796.000000 1.850000 
-86.260002 1898.000000 69.849998 
78.029999 1845.000000 -70.260002 
-62.349998 1706.000000 -74.309998 
30.990000 1989.000000 101.370003 
-51.000000 1809.000000 88.330002 
-83.500000 1914.000000 70.059998 
64.910004 1593.000000 3.400000 
105.739998 1921.000000 -30.320000 
-57.730000 1974.000000 88.900002 
18.700001 2044.000000 -96.199997 
61.660000 1577.000000 6.480000 
65.559998 1792.000000 -78.139999 
53.340000 1555.000000 -8.450000 
-17.620001 1460.000000 21.760000 
106.949997 1799.000000 -15.030000 
-81.889999 2114.000000 4.290000 
32.250000 2107.000000 -84.019997 
-97.010002 1793.000000 31.520000 
71.879997 2095.000000 41.500000 
7.840000 2087.000000 89.660004 
-80.889999 2107.000000 -39.450001 
-62.790001 1593.000000 -16.820000 
34.970001 1570.000000 55.970001 
38.209999 1593.000000 -52.590000 
65.599998 1620.000000 36.360001 
111.169998 1861.000000 -13.650000 
52.840000 1905.000000 -95.330002 
-75.430000 1648.000000 -45.320000 
-59.290001 2161.000000 -18.129999 
-78.489998 1747.000000 -63.560001 
-74.250000 1941.000000 -74.250000 
0.000000 1366.000000 0.000000 
-64.949997 2025.000000 74.720001 
0.000000 1672.000000 -88.000000 
77.269997 2094.000000 -20.709999 
41.029999 1845.000000 -96.650002 
40.410000 1513.000000 -32.720001 
-87.879997 1852.000000 59.270000 
-3.390000 2017.000000 -96.940002 
38.580002 1681.000000 -79.089996 
49.450001 1756.000000 -89.209999 
1.690000 1728.000000 96.989998 
109.000000 1905.000000 0.000000 
-12.310000 1958.000000 100.250000 
1.950000 1879.000000 111.980003 
-52.570000 2177.000000 24.510000 
-72.279999 1617.000000 23.490000 
55.009998 2028.000000 -84.709999 
-45.150002 1895.000000 101.400002 
-72.629997 1860.000000 86.559998 
77.699997 1671.000000 -41.310001 
-97.989998 1725.000000 1.710000 
59.139999 1594.000000 -35.540001 
-17.170000 2053.000000 -88.349998 
-79.199997 1879.000000 -79.199997 
-8.290000 1585.000000 -67.489998 
-46.910000 1993.000000 96.169998 
13.640000 1737.000000 -97.050003 
-15.960000 1759.000000 -100.739998 
0.000000 2262.000000 -36.000000 
-79.720001 1848.000000 74.339996 
26.400000 1792.000000 98.519997 
-71.459999 1614.000000 8.770000 
-26.049999 1636.000000 75.639999 
-99.769997 1862.000000 -53.049999 
-76.980003 2139.000000 17.770000 
24.520000 1839.000000 -106.209999 
67.489998 1584.000000 -8.290000 
108.980003 1956.000000 1.900000 
-87.430000 1765.000000 -52.529999 
9.020000 2136.000000 -73.449997 
91.800003 1853.000000 -53.000000 
36.200001 1666.000000 -81.309998 
-8.770000 1614.000000 -71.459999 
-68.250000 1793.000000 75.800003 
-48.259998 2206.000000 8.510000 
-7.530000 1902.000000 -107.739998 
17.020000 2044.000000 96.510002 
-107.589996 1857.000000 -9.410000 
27.690001 1904.000000 -103.349998 
-87.849998 1801.000000 66.199997 
-102.089996 1741.000000 19.840000 
-44.430000 2180.000000 -37.279999 
-60.950001 1750.000000 78.010002 
-53.330002 1955.000000 96.209999 
-101.610001 1808.000000 -8.890000 
40.000000 1627.000000 -69.279999 
80.260002 1799.000000 -72.269997 
9.260000 1608.000000 -75.430000 
-45.799999 2226.000000 -10.570000 
29.969999 1730.000000 92.250000 
-37.990002 1481.000000 -0.660000 
106.360001 1834.000000 18.750000 
45.590000 1985.000000 -93.470001 
11.430000 1480.000000 35.189999 
-1.710000 2019.000000 97.989998 
-28.320000 1470.000000 -20.570000 
-95.919998 1845.000000 42.709999 
49.500000 1573.000000 -49.500000 
9.760000 1877.000000 -111.570000 
-48.099998 2190.000000 -26.660000 
-87.430000 1793.000000 52.529999 
45.320000 2057.000000 -75.430000 
21.160000 1568.000000 61.459999 
-1.450000 2121.000000 -82.989998 
11.230000 1555.000000 -52.820000 
-69.589996 1778.000000 77.290001 
-85.879997 2126.000000 -4.500000 
-39.730000 2042.000000 85.190002 
-58.880001 1649.000000 65.400002 
-25.959999 2123.000000 79.889999 
49.330002 2126.000000 -70.449997 
-17.020000 1755.000000 96.510002 
-31.540001 1676.000000 -82.160004 
81.139999 1657.000000 21.740000 
2.720000 1512.000000 -51.930000 
66.919998 1808.000000 -76.980003 
-89.879997 1766.000000 43.840000 
-32.500000 2189.000000 -43.130001 
62.369999 2158.000000 -31.780001 
78.800003 1787.000000 61.570000 
-43.580002 2229.000000 17.610001 
-52.580002 1897.000000 -98.889999 
-98.889999 1876.000000 52.580002 
65.489998 2139.000000 -44.180000 
-45.919998 1589.000000 52.830002 
-0.000000 1768.000000 97.000000 
15.630000 1690.000000 88.629997 
-75.989998 2143.000000 1.330000 
-60.220001 1664.000000 -66.879997 
85.739998 1740.000000 49.500000 
-53.560001 1986.000000 -89.150002 
-4.130000 1639.000000 78.889999 
-83.709999 2072.000000 14.760000 
56.639999 2067.000000 -69.940002 
20.709999 1636.000000 77.269997 
-15.760000 1511.000000 -48.500000 
40.990002 2020.000000 87.910004 
-7.530000 2131.000000 -71.610001 
35.560001 1469.000000 5.630000 
38.310001 1915.000000 -105.250000 
-24.850000 2073.000000 -81.290001 
6.680000 2224.000000 -47.529999 
26.010000 2254.000000 23.420000 
109.940002 1929.000000 21.370001 
16.820000 2173.000000 62.790001 
105.290001 1818.000000 28.209999 
71.599998 1829.000000 79.519997 
-97.089996 1960.000000 27.840000 
33.209999 2099.000000 78.239998 
-10.480000 2071.000000 -85.360001 
8.540000 1755.000000 97.629997 
-72.809998 2086.000000 52.900002 
-79.860001 1766.000000 60.180000 
-23.910000 1843.000000 112.489998 
-52.580002 1875.000000 98.889999 
22.660000 1871.000000 -106.620003 
3.870000 1935.000000 110.930000 
35.869999 1537.000000 44.299999 
-20.080000 2275.000000 -28.670000 
-13.160000 1907.000000 107.190002 
-38.349998 1904.000000 -99.889999 
-84.989998 2074.000000 -1.480000 
-102.120003 1926.000000 35.160000 
-79.209999 1653.000000 21.219999 
66.919998 1808.000000 76.980003 
30.850000 2127.000000 66.160004 
-26.400000 1777.000000 -98.519997 
9.330000 1904.000000 -106.589996 
65.620003 1596.000000 -21.320000 
32.279999 2279.000000 -6.860000 
40.669998 1744.000000 91.349998 
-61.490002 2140.000000 44.669998 
66.199997 1933.000000 -87.849998 
-17.490000 2258.000000 -27.990000 
-112.889999 1843.000000 -21.940001 
-35.080002 2088.000000 -75.220001 
99.139999 1980.000000 -19.270000 
-5.860000 1892.000000 111.849998 
-1.810000 1513.000000 51.970001 
-55.360001 1736.000000 82.070000 
-96.970001 1819.000000 45.220001 
64.279999 1771.000000 -76.599998 
88.180000 1901.000000 -64.070000 
11.820000 1721.000000 -96.279999 
-95.629997 1769.000000 29.240000 
-86.559998 1994.000000 -62.889999 
-87.820000 1891.000000 -71.110001 
-43.619999 2110.000000 -64.660004 
66.849998 1973.000000 79.669998 
63.570000 2051.000000 -70.599998 
53.669998 1571.000000 34.860001 
-78.139999 1762.000000 -65.559998 
-31.950001 2260.000000 11.630000 
97.959999 1945.000000 54.299999 
46.810001 2147.000000 43.650002 
31.250000 1716.000000 -90.769997 
66.830002 2126.000000 -54.119999 
63.740002 2143.000000 41.389999 
-16.629999 1629.000000 -78.250000 
-25.110001 2291.000000 -14.500000 
19.980000 1461.000000 -27.510000 
85.970001 2082.000000 -23.030001 
22.500000 2275.000000 -26.809999 
99.889999 1993.000000 -38.349998 
-42.250000 2085.000000 79.470001 
14.000000 1409.000000 0.240000 
-0.000000 1584.000000 68.000000 
94.980003 1893.000000 59.349998 
0.000000 1756.000000 -102.000000 
-14.080000 2303.000000 -26.490000 
-83.800003 2126.000000 -19.350000 
-43.840000 2009.000000 89.879997 
92.250000 2034.000000 29.969999 
114.370003 1918.000000 12.020000 
-24.070000 1993.000000 -104.260002 
-60.950001 2013.000000 -78.010002 
27.840000 1960.000000 -97.089996 
-71.279999 2094.000000 -36.320000 
100.220001 1946.000000 -34.509998 
-12.060000 2181.000000 -56.730000 
24.540001 1475.000000 -30.309999 
-79.589996 1711.000000 -44.119999 
5.230000 1981.000000 99.860001 
-35.209999 2063.000000 -87.160004 
-62.119999 1554.000000 27.660000 
-65.470001 1695.000000 70.209999 
61.509998 1801.000000 91.190002 
-2.960000 2253.000000 33.869999 
108.000000 1926.000000 0.000000 
23.070000 1431.000000 -6.620000 
-21.770000 2107.000000 -87.330002 
52.529999 1757.000000 87.430000 
39.709999 1781.000000 98.279999 
-18.299999 1649.000000 86.080002 
19.280001 2302.000000 -22.980000 
35.570000 1741.000000 -97.730003 
101.059998 1817.000000 -40.830002 
-4.500000 2126.000000 85.879997 
89.989998 1690.000000 1.570000 
-85.540001 1734.000000 43.580002 
88.080002 1725.000000 42.959999 
34.889999 1765.000000 95.849998 
56.849998 2174.000000 31.510000 
18.750000 1928.000000 106.360001 
-62.099998 2157.000000 34.419998 
47.919998 2216.000000 -17.440001 
