101.010002 1756.000000 14.200000 
58.279999 1995.000000 89.739998 
-84.760002 1695.000000 45.070000 
-62.099998 2157.000000 34.419998 
32.680000 1457.000000 -9.370000 
-0.100000 1350.000000 -6.000000 
24.430000 2028.000000 98.000000 
-63.090000 1920.000000 90.110001 
113.879997 1918.000000 -16.000000 
62.169998 1656.000000 57.970001 
52.860001 2081.000000 -65.279999 
-62.889999 1904.000000 -86.559998 
-60.220001 1664.000000 -66.879997 
89.150002 1985.000000 53.560001 
85.669998 1652.000000 7.500000 
-10.070000 2184.000000 57.119999 
92.419998 1750.000000 -35.480000 
0.000000 1625.000000 -81.000000 
28.870001 2211.000000 44.450001 
-8.020000 1843.000000 -114.720001 
-56.139999 1817.000000 -93.430000 
-58.880001 1649.000000 65.400002 
-53.230000 1602.000000 51.400002 
49.990002 1526.000000 0.870000 
105.980003 1974.000000 -1.850000 
106.949997 1799.000000 -15.030000 
-9.220000 1487.000000 -39.950001 
26.430000 1497.000000 32.639999 
-65.820000 1713.000000 -61.380001 
56.849998 2174.000000 31.510000 
-25.879999 2009.000000 96.589996 
-23.959999 2303.000000 18.049999 
-46.279999 1600.000000 -55.160000 
-47.419998 1747.000000 89.180000 
-53.970001 2196.000000 -1.880000 
33.680000 1839.000000 103.669998 
-20.430000 1538.000000 -53.209999 
44.599998 1696.000000 83.879997 
-22.780001 1689.000000 -85.000000 
-0.000000 1966.000000 105.000000 
-87.459999 1976.000000 -48.480000 
0.000000 2297.000000 -26.000000 
-12.060000 2181.000000 -56.730000 
-76.940002 2026.000000 -62.299999 
77.709999 1787.000000 -62.930000 
-53.560001 1986.000000 -89.150002 
-96.199997 1703.000000 -18.700001 
-10.720000 1399.000000 9.000000 
78.989998 1799.000000 73.660004 
39.560001 2181.000000 -42.419998 
-35.209999 2042.000000 -87.160004 
-98.459999 2026.000000 10.350000 
-43.930000 1799.000000 98.660004 
-18.299999 1681.000000 86.080002 
79.459999 2049.000000 55.639999 
-115.000000 1918.000000 -0.000000 
87.449997 1698.000000 37.119999 
-72.000000 1591.000000 -0.000000 
73.820000 1603.000000 -5.160000 
57.520000 1606.000000 44.939999 
-34.200001 1743.000000 -93.970001 
79.900002 1862.000000 79.900002 
-17.049999 1922.000000 107.660004 
-17.520000 1861.000000 110.620003 
79.199997 1945.000000 79.199997 
0.000000 1783.000000 -107.000000 
20.930000 2284.000000 26.790001 
79.860001 2031.000000 -60.180000 
104.000000 1863.000000 0.000000 
17.990000 1918.000000 -113.580002 
-0.560000 1453.000000 32.000000 
91.419998 1860.000000 -66.419998 
7.120000 1793.000000 101.750000 
-87.879997 1853.000000 -59.270000 
53.490002 1623.000000 -55.389999 
-83.110001 1749.000000 51.930000 
-85.879997 2126.000000 -4.500000 
51.990002 2208.000000 -0.910000 
-18.120001 1573.000000 67.610001 
79.589996 1982.000000 -62.180000 
-85.110001 2082.000000 26.020000 
-53.619999 2154.000000 -45.000000 
62.580002 1674.000000 -60.439999 
65.489998 2139.000000 -44.180000 
-94.400002 1905.000000 54.500000 
11.820000 1721.000000 -96.279999 
37.630001 2007.000000 -98.029999 
73.870003 1747.000000 68.879997 
54.500000 1885.000000 -94.400002 
-97.120003 1921.000000 -51.639999 
-9.870000 1625.000000 80.400002 
105.900002 1929.000000 36.459999 
4.450000 2073.000000 -84.879997 
-62.119999 1554.000000 27.660000 
75.949997 2130.000000 2.650000 
39.060001 1905.000000 101.760002 
-102.089996 1972.000000 19.840000 
36.029999 1553.000000 57.669998 
55.540001 2095.000000 61.680000 
-62.520000 2107.000000 -64.739998 
-78.139999 1762.000000 -65.559998 
64.949997 1739.000000 -74.720001 
89.449997 1931.000000 -67.400002 
-57.730000 1974.000000 88.900002 
-20.430000 2249.000000 40.099998 
-104.980003 1845.000000 1.830000 
28.870001 1524.000000 -44.450001 
-85.599998 2061.000000 -27.809999 
-35.380001 2263.000000 -10.820000 
93.250000 1696.000000 -18.129999 
-64.949997 2025.000000 74.720001 
-64.660004 1846.000000 88.989998 
47.779999 1820.000000 -97.970001 
88.660004 2079.000000 -7.760000 
-97.459999 1755.000000 -10.240000 
-26.469999 1445.000000 -9.120000 
-85.529999 1652.000000 -8.990000 
-16.410000 2126.000000 -84.419998 
34.500000 2142.000000 67.720001 
-97.010002 1808.000000 -31.520000 
-25.969999 1525.000000 41.549999 
98.260002 2025.000000 -12.070000 
99.889999 1828.000000 38.349998 
20.469999 1573.000000 -66.940002 
-47.160000 2069.000000 75.480003 
-38.529999 1487.000000 14.020000 
45.639999 1957.000000 -97.879997 
-54.869999 2115.000000 60.939999 
-25.889999 1947.000000 -103.820000 
-26.959999 2225.000000 -38.500000 
27.700001 2250.000000 -35.459999 
7.840000 2087.000000 89.660004 
-108.330002 1801.000000 19.100000 
13.640000 1737.000000 97.050003 
-49.799999 1524.000000 -18.129999 
-8.630000 1997.000000 -98.620003 
-87.849998 1801.000000 66.199997 
